ply
format ascii 1.0
element vertex 692
property double x
property double y
property double z
property uchar red
property uchar green
property uchar blue
end_header
0.0597411622405220 -0.0059232011847215 4.2855073586626027 203 203 203
0.0922834245824743 0.0193046259683234 4.2891779081741124 99 99 99
0.0557369982851197 -0.0075687009387688 4.2851124013314177 123 123 123
0.1218375015516206 0.0207934552440895 4.2907033465654614 147 147 147
0.0418062064804573 -0.0423307943210661 4.2822102372915989 5 5 5
0.1005116477427041 0.0198031185413722 4.2896289179437304 115 115 115
0.1334967205682246 -0.0203397693717778 4.2902230068026252 231 231 231
0.0353823612089026 -0.0254562300203175 4.2836087206426035 193 193 193
0.0970506263906113 -0.0107127076077606 4.2869196318409397 128 128 128
0.0709544650198959 0.0018975803499426 4.2868010160856516 224 224 224
0.1329263667711102 -0.0127650703650136 4.2909981168290132 92 92 92
0.1151740048686950 0.0213009189748328 4.2905537102638283 180 180 180
0.0680932635873299 -0.0035367137012562 4.2862115538292676 161 161 161
0.0663823445251230 -0.0231267674054484 4.2844391288484927 164 164 164
0.0996848370934063 0.0046712107837792 4.2883009351239760 151 151 151
0.1184207146191984 -0.0269041465347378 4.2870823280765622 181 181 181
0.0724270431525877 -0.0017577017230015 4.2865381105772196 120 120 120
0.1114226979708150 0.0215785349030798 4.2903162601286908 204 204 204
0.0416085372217940 -0.0391712807561611 4.2823268979261933 4 4 4
0.1140926231233435 -0.0266937177315272 4.2868107194512666 219 219 219
0.0618532403705995 -0.0006004294916610 4.2859138348263039 126 126 126
0.0359324600886879 -0.0227724957275580 4.2835051939227489 200 200 200
0.0947979254296026 0.0186848844329601 4.2892334761097057 158 158 158
0.0570793191272801 0.0000076414064095 4.2857516555490447 189 189 189
0.1084045912003361 -0.0268341754621153 4.2863101534124635 145 145 145
0.0918551733964848 -0.0293120340372084 4.2852562237065710 104 104 104
0.0632811530835364 0.0060866330077733 4.2866585957204597 103 103 103
0.0503460861554204 0.0049375910575800 4.2856926920802776 209 209 209
0.1479778823877924 -0.0354289778172971 4.2966995484252131 67 67 67
0.1111080838918632 0.0064034132054001 4.2891550930409839 203 203 203
0.1194464694236446 0.0070342873902937 4.2896701433108202 155 155 155
0.0685185394860474 0.0020526963390838 4.2866058267144513 176 176 176
0.1453029353332619 -0.0341529326189577 4.2943026887144509 217 217 217
0.0500796279232938 0.0058537220038148 4.2857126148174016 172 172 172
0.0973418061272282 0.0220230424021310 4.2896237856066897 1 1 1
0.0598240776561512 0.0075335956749510 4.2864338929987991 165 165 165
0.1218459166709258 -0.0249080101686141 4.2874514518597477 89 89 89
0.0516676908508039 -0.0279368205018313 4.2832933791836529 239 239 239
0.1373649359312145 -0.0068312210667387 4.2912078689162243 161 161 161
0.0857187694761849 0.0054410563753745 4.2877336615500443 1 1 1
0.0406650847342404 0.0069808336407376 4.2858534976144975 211 211 211
0.0423272840300780 -0.0276009337146174 4.2818351749259156 188 188 188
0.1361692264395096 0.0233397675962437 4.2960734754049303 98 98 98
0.0928642131034560 0.0194421110702090 4.2892439430420044 244 244 244
0.1071165653254793 -0.0273834128464324 4.2862312311473998 173 173 173
0.0666857050583372 0.0153090815924541 4.2875398328574956 131 131 131
0.0906204833428764 -0.0038988306748466 4.2874230161126237 118 118 118
0.0589942467227844 0.0203509129639017 4.2874974477073895 142 142 142
0.1066015414072584 0.0067225647164334 4.2889514852524497 152 152 152
0.0726686597178145 0.0123728766753701 4.2876785337436392 205 205 205
0.1392346670344189 0.0055321101488176 4.2933037617913818 185 185 185
0.1077091324601117 0.0068453882245322 4.2889296247794855 186 186 186
0.1331266126833490 0.0022531039369660 4.2909166827931040 126 126 126
0.0984700699136437 0.0228646427155338 4.2897512523986148 69 69 69
0.0723300583257031 0.0170694837902005 4.2879236876434348 148 148 148
0.0614449786617536 0.0195259817290733 4.2876887133180324 106 106 106
0.1177988531143171 -0.0264532441554763 4.2872238477061382 140 140 140
0.0731531637585346 0.0196816593153643 4.2883263529988582 105 105 105
0.1446877251239890 0.0252665430799665 4.2987458925011293 193 193 193
0.1109866830561271 -0.0268930793255250 4.2865507724641772 153 153 153
0.1452361218029531 0.0273675227088922 4.2996100363277545 255 255 255
0.0650771353329056 0.0247469079426792 4.2886294614902294 133 133 133
0.1058118646954935 -0.0097178814242165 4.2874959154658470 132 132 132
0.0517325827086787 0.0045876337369149 4.2858804681177674 173 173 173
0.0455897222563826 -0.0458683974313450 4.2821935936668059 108 108 108
0.1175707298823242 -0.0258372050737572 4.2870596490847674 212 212 212
0.0564474172791134 -0.0086308294640010 4.2850597274143025 72 72 72
0.1044397179747403 0.0079113706267627 4.2888499975042196 129 129 129
0.0581524200464499 0.0095963443301844 4.2865792574990955 193 193 193
0.1044837244340963 0.0244821045243588 4.2901492665610075 65 65 65
0.0667755305448162 0.0125787076276661 4.2874175529697309 100 100 100
0.0737307683470695 -0.0066495226310397 4.2862734035784351 187 187 187
0.1183239042879057 0.0250905920798565 4.2908999699243981 151 151 151
0.0878302358781712 -0.0204613633352811 4.2858816004033455 97 97 97
0.0515652472779414 -0.0240901325565405 4.2830674327791822 209 209 209
0.1048480802583321 -0.0097357494053983 4.2876723105929093 164 164 164
0.0658721045963723 -0.0000573739397115 4.2865466174084528 163 163 163
0.0475270916259016 -0.0340651487535632 4.2834330565551930 177 177 177
0.0797071393290748 0.0245653858924860 4.2890534782797971 1 1 1
0.0987543528771777 0.0256830593265785 4.2900495674845889 87 87 87
0.0723636394828584 0.0048238923486243 4.2871512491209547 72 72 72
0.0470780810885847 -0.0169315431071076 4.2836038681546764 204 204 204
0.0912409192105843 0.0092854236826542 4.2885125453390298 182 182 182
0.1414045864426422 0.0028093408741369 4.2941714228917425 89 89 89
0.1081620718565345 0.0269066720502419 4.2905800229286619 153 153 153
0.0712161832505338 -0.0131808451384569 4.2855038499449893 181 181 181
0.0637355434941096 -0.0430368544966145 4.2829991179078926 147 147 147
0.0351581127175196 -0.0172579845487344 4.2835865846896182 189 189 189
0.1081688417556955 -0.0098392752565032 4.2878118121270763 158 158 158
0.1323494705342662 -0.0059915998257434 4.2901979221031148 73 73 73
0.0548109713906750 -0.0186118742293120 4.2842306822930158 107 107 107
0.0900957012865966 -0.0018383793353464 4.2874446293747628 204 204 204
0.0884806383867312 0.0218308169337917 4.2893627445039115 145 145 145
0.0692328520323470 -0.0160114959908574 4.2848360939297017 202 202 202
0.0613361759112135 -0.0196776152694969 4.2844574745621138 179 179 179
0.0832086846034117 0.0257325094370811 4.2892553475724515 176 176 176
0.0624110367351326 -0.0064569893173586 4.2855016229929808 228 228 228
0.0723932027334965 0.0192042454364321 4.2882020692690102 143 143 143
0.1190772860774758 -0.0241129100996617 4.2873126637810017 136 136 136
0.1379484299376153 -0.0311521336547464 4.2918069156477570 161 161 161
0.0644476677931805 0.0106344246568319 4.2870540120345435 134 134 134
0.0703538662901930 0.0211947430901116 4.2882681066795767 119 119 119
0.0633760596055672 -0.0080271781324755 4.2854701477258077 50 50 50
0.1192771312485080 -0.0237585590545555 4.2874246903589226 121 121 121
0.0615114799779782 0.0246106820128418 4.2880320945483925 129 129 129
0.0987829466286060 -0.0184990425582034 4.2866075159619053 203 203 203
0.0341792263795409 -0.0219794954885142 4.2832577524715676 211 211 211
0.0445972024647940 0.0036927061657504 4.2839416111385615 191 191 191
0.1061629146755540 -0.0220922053448257 4.2866835821455940 198 198 198
0.1344516670605127 -0.0131607174917498 4.2910599160946115 209 209 209
0.0625367570057797 0.0019982725308581 4.2862543437627778 89 89 89
0.1005872939887768 0.0240363525414176 4.2900050155229046 126 126 126
0.0823150753748702 0.0221345866709930 4.2889552693477579 229 229 229
0.1380693240630242 0.0238456629972905 4.2959981764722128 147 147 147
0.1135008503354322 -0.0176894673725130 4.2874577145633719 251 251 251
0.0641703799722391 0.0168635144583007 4.2877423118079214 186 186 186
0.1298053409419858 0.0091405597366630 4.2906438703943675 131 131 131
0.1070903214797642 0.0251181577234304 4.2903537223193213 183 183 183
0.0623906690748377 0.0047048629448544 4.2865179066185419 92 92 92
0.0877857093020342 -0.0250686224537769 4.2854319883893357 168 168 168
0.0678161277302790 -0.0390722906796296 4.2830422341384633 145 145 145
0.1061972381794102 -0.0241217988893482 4.2864486433229025 100 100 100
0.0988448965870924 0.0250599683461762 4.2899495073174787 81 81 81
0.1045362580198490 -0.0208620217154128 4.2866402253090152 74 74 74
0.1115500664816665 -0.0204188035420319 4.2872406712314532 131 131 131
0.1328895449217566 0.0298008820373293 4.2952340003209386 170 170 170
0.1071694667204732 -0.0204897031522090 4.2868435466864332 171 171 171
0.1360711757327428 0.0298193883325576 4.2970214247181726 165 165 165
0.0715272852316921 -0.0250965309477273 4.2845654888934614 174 174 174
0.0929094994904190 0.0254026776588882 4.2897222815785092 104 104 104
0.1138731873921911 -0.0196397099577223 4.2873246740047817 218 218 218
0.0858183536276980 0.0080432990648442 4.2880893372365136 171 171 171
0.1089386953531223 -0.0234337142770707 4.2866667060236088 223 223 223
0.0822507464335554 -0.0175268467488895 4.2858429657838775 170 170 170
0.0985818604989568 0.0093531658818850 4.2888489059487815 142 142 142
0.1294491428381523 0.0130206421545691 4.2907723919711671 109 109 109
0.0855889696861174 -0.0167485791919733 4.2859903642933235 132 132 132
0.1342207347752233 -0.0250065091297972 4.2907267614171039 255 255 255
0.0801182106738475 0.0086669431111052 4.2878428551606023 87 87 87
0.1019086493547899 -0.0157979023112836 4.2869627852743717 188 188 188
0.1292465610098099 0.0172793213528781 4.2912737288532927 69 69 69
0.0818020711997785 0.0251160236544863 4.2890575294796971 131 131 131
0.1048592900080268 0.0264430634025595 4.2902598814416404 146 146 146
0.1186873999555386 -0.0146627968246316 4.2879611504667752 184 184 184
0.0798576832723399 -0.0100505168866417 4.2863461939269234 185 185 185
0.1076660638890197 -0.0171670543816882 4.2871352801993936 205 205 205
0.1064821870446759 -0.0038782661351922 4.2880858916710469 200 200 200
0.0959613463629893 -0.0144961302434285 4.2868336286680515 146 146 146
0.1043311069432342 0.0285512394888706 4.2904089139368455 111 111 111
0.0916960870837247 0.0280313794216410 4.2897953946612546 102 102 102
0.1047226930965249 0.0296235656600039 4.2904575195356092 238 238 238
0.1047250449492503 0.0296214554667121 4.2904545719017024 238 238 238
0.0815521625206752 -0.0165665719221605 4.2858511732787568 204 204 204
0.0772283463816923 -0.0111505436694674 4.2860822785020805 241 241 241
0.0797448049922474 -0.0023623586742912 4.2869865736932224 125 125 125
0.0860271452985201 -0.0432178570803226 4.2838712077419858 137 137 137
0.0746646398448922 0.0171772838425524 4.2881988082150659 108 108 108
0.1177293096551937 -0.0411829796317647 4.2859332176083305 119 119 119
0.1049493396740333 -0.0005957253523496 4.2883404216379084 106 106 106
0.0989665105367852 0.0140796200185588 4.2889611099883638 64 64 64
0.1055841336705953 -0.0071305866391847 4.2877794167145842 87 87 87
0.0962540596090312 -0.0404876860605350 4.2848065497010390 142 142 142
0.1123702514331530 0.0029215482335276 4.2889866937977503 79 79 79
0.1008751940717798 -0.0093089214933373 4.2873988474659965 241 241 241
0.0970659472552773 0.0156865105638096 4.2894076551435152 170 170 170
0.0773412154035314 -0.0095074227410535 4.2861371954504630 108 108 108
0.1001618463392862 -0.0382912261742628 4.2852896847744733 141 141 141
0.1062576038406999 0.0048180131475390 4.2888126489459992 147 147 147
0.1076164969688730 -0.0073949587959729 4.2879781241032182 150 150 150
0.1055609042407132 0.0052443160762543 4.2888316545814948 93 93 93
0.0460157979544729 -0.0405712743341423 4.2820007572387748 142 142 142
0.0936140663938147 -0.0021660272512003 4.2874787058837471 117 117 117
0.0828254813199576 -0.0027147163052817 4.2870770655804407 170 170 170
0.1011006824893934 0.0077251794394354 4.2886501816623070 129 129 129
0.1131634503514732 -0.0050721380211613 4.2883455361705431 251 251 251
0.0904204272305692 -0.0354308967560576 4.2847736672672294 139 139 139
0.0761567562104666 0.0146231002239858 4.2881404606955469 156 156 156
0.1180343138997754 -0.0330287532897040 4.2864441548901260 164 164 164
0.0912946535618078 -0.0065198240135179 4.2871908087160451 174 174 174
0.0835673133980235 -0.0004696627042088 4.2872333777688265 153 153 153
0.1043981815180874 0.0097061362692418 4.2891381077625788 160 160 160
0.1140500754466735 0.0033251783641062 4.2890874965250356 111 111 111
0.0860442837859140 0.0099083301798926 4.2882297689387485 124 124 124
0.0847075349287070 0.0104106285399940 4.2878478619599791 116 116 116
0.1088228002509035 -0.0280058293502358 4.2864154905975802 170 170 170
0.0567671206106823 -0.0397514145969196 4.2826589660811241 135 135 135
0.1114849420736835 0.0131876827758277 4.2898117037000159 171 171 171
0.0719879952030715 0.0035805076975083 4.2870289011162601 90 90 90
0.0800272693666541 0.0000582959833744 4.2871550652287480 206 206 206
0.0586177309605921 -0.0358372923115137 4.2829720065924928 152 152 152
0.1104460228909606 0.0057979366717154 4.2890233567078253 96 96 96
0.1257783528961006 0.0023011552275794 4.2888287589702037 103 103 103
0.0769201404624416 0.0189491607996588 4.2885154659878628 217 217 217
0.0953073276608508 0.0052325195806778 4.2883390718934322 199 199 199
0.0932462216604190 0.0153447191314906 4.2890222790028583 239 239 239
0.1197310554531574 -0.0253744854201095 4.2871746436996574 139 139 139
0.0917100698046744 -0.0142948672626954 4.2866313028107745 99 99 99
0.0830860532479760 -0.0345179929330166 4.2844743869051092 121 121 121
0.0905838520353194 0.0139520981561769 4.2889915114356114 153 153 153
0.0720613024420887 -0.0408196138422021 4.2834183902243410 95 95 95
0.1256637291647485 -0.0194189426698437 4.2888256946389163 122 122 122
0.0758993417176419 0.0200582374523419 4.2885301700800511 167 167 167
0.1035021451496417 0.0152216842346059 4.2895492252794236 137 137 137
0.1032495903635617 -0.0246591527289781 4.2863180131192227 69 69 69
0.1088603259800900 -0.0248519223280777 4.2866642518581655 255 255 255
0.1075367893566829 -0.0232457358026599 4.2867875478091060 118 118 118
0.0884889651124645 -0.0240475325586780 4.2853404931918488 174 174 174
0.0989064409315111 0.0086052549939993 4.2887096353666525 166 166 166
0.1054881681244599 0.0172960891500328 4.2894005614073523 151 151 151
0.0914724028572811 -0.0056255994292019 4.2873102071431468 181 181 181
0.1071439882175602 -0.0226880374626345 4.2865770538915919 183 183 183
0.0807054524367994 -0.0233945711480920 4.2855550798625641 21 21 21
0.0914859147436934 -0.0056215819317269 4.2872571530400441 181 181 181
0.0899223360726595 0.0087429748202082 4.2882842785978292 137 137 137
0.1004987014585332 0.0164652245627156 4.2895991617975788 124 124 124
0.1031453615731146 -0.0214297023868816 4.2866902164000429 167 167 167
0.1176848525929317 0.0118617151275539 4.2897732088817948 97 97 97
0.0809491305672237 0.0114686696370433 4.2880362424963732 114 114 114
0.1023308335147294 0.0115317764280499 4.2891827969042309 134 134 134
0.1061782108351896 0.0191572400613636 4.2898421250616323 124 124 124
0.1023278050913499 0.0115355062038773 4.2891477859337090 134 134 134
0.0931077389045784 -0.0227896114392949 4.2859686620866091 155 155 155
0.1369396274273982 -0.0051126567835496 4.2919497107376836 166 166 166
0.0939193407166969 0.0133113361026990 4.2888552382880070 76 76 76
0.0689899594931780 -0.0306861812847830 4.2840391448817181 172 172 172
0.0352693679153023 -0.0200970101544753 4.2833849445905132 9 9 9
0.1069233805087678 0.0214024547340883 4.2900809515650318 202 202 202
0.1002235509287265 -0.0133836904209179 4.2869740279858819 97 97 97
0.1286576532014746 -0.0399342252846468 4.2886321963053051 192 192 192
0.0985627482084537 0.0135647479264154 4.2890879291885682 194 194 194
0.1135430456842893 0.0228033350080436 4.2904702237662988 225 225 225
0.0963902028485821 0.0251238015888691 4.2898670456255488 1 1 1
0.1126034767495066 0.0272174658392926 4.2909855973207076 124 124 124
0.1040491253333728 0.0274901819427598 4.2903886057379372 127 127 127
0.0806633171444587 -0.0285580031686028 4.2846965855552304 117 117 117
0.0843938443531073 -0.0418633625025951 4.2838206143370758 77 77 77
0.0943178806286915 -0.0116094027688493 4.2872326578519830 120 120 120
0.0997200150845987 0.0005276260883375 4.2880007641021178 160 160 160
0.0933967785372197 0.0003267835758595 4.2880469390175300 37 37 37
0.0704327473516011 -0.0145965992581838 4.2854477029855254 79 79 79
0.1221878996760947 -0.0413095704174731 4.2861226144364508 170 170 170
0.1067876161965678 0.0012112813368312 4.2885717204723468 108 108 108
0.0685353050604330 -0.0146303056407798 4.2852758075431527 215 215 215
0.1183734518813079 0.0029410926050147 4.2892220970391017 117 117 117
0.0984120739679306 -0.0395149816888756 4.2848664236150436 147 147 147
0.0793510733317750 0.0214064880168025 4.2887304315848063 135 135 135
0.1099163191672227 -0.0368632703484779 4.2860485764115825 130 130 130
0.0839058041634870 -0.0251086676741519 4.2850554830009857 182 182 182
0.1042254876838609 0.0038853108103909 4.2885427363711042 28 28 28
0.0793488689438243 0.0171606485604547 4.2884852427670230 180 180 180
0.0953628808647170 -0.0138034423342837 4.2866724374172644 64 64 64
0.0971474478727623 0.0191860134973064 4.2894302786073268 255 255 255
0.0753505405534070 0.0230784834096337 4.2887113959845005 156 156 156
0.1124110398804123 -0.0309273866313514 4.2865534427541974 173 173 173
0.1439222695569589 0.0157935146811625 4.2962969973096916 169 169 169
0.0992149216206111 0.0079062744503446 4.2885459715205423 69 69 69
0.0748457354596451 0.0064036594513802 4.2872199769969335 251 251 251
0.0973283239196023 0.0211131708777041 4.2895889984338416 135 135 135
0.1373420364446744 -0.0210037868351676 4.2918733050606610 76 76 76
0.1075368937150873 -0.0282764939272208 4.2863408723868615 146 146 146
0.0809561764099225 -0.0295739972981874 4.2847168577276520 126 126 126
0.0724341522182532 0.0218846076942533 4.2885356070977396 1 1 1
0.0795092545942632 -0.0256666435375165 4.2849778286490912 228 228 228
0.0937979451336812 -0.0076204897780370 4.2870162238141631 204 204 204
0.0967270706624460 0.0056963363536949 4.2884739311431934 180 180 180
0.1037881055806716 -0.0246189661820557 4.2862949804802248 84 84 84
0.0652316887689699 -0.0239178062917835 4.2844001340673028 88 88 88
0.1005413357535192 0.0206339753170067 4.2897747284386947 187 187 187
0.0810762946555629 0.0106437006048499 4.2879239819669088 31 31 31
0.1017089171850331 -0.0003432439708130 4.2880559752854630 115 115 115
0.1038576973171718 0.0009819770273635 4.2883779047354693 126 126 126
0.0763798371764326 -0.0393544278675915 4.2834976029030774 119 119 119
0.0606639333545139 -0.0024396863665456 4.2859696323587517 111 111 111
0.1027127932058297 0.0263480616784116 4.2902215833414674 101 101 101
0.0838484738738109 0.0228417528787448 4.2888751100102107 90 90 90
0.1023438874827703 -0.0038277851188789 4.2879663750992156 98 98 98
0.0793398675743667 0.0052562445006754 4.2875170274159151 111 111 111
0.0806115949843105 0.0021060794314848 4.2873186324710932 145 145 145
0.1068538366057305 -0.0419301043319880 4.2851047885117524 183 183 183
0.0884035627774790 -0.0288497297761797 4.2851291607894080 63 63 63
0.1403050816828149 -0.0332227298403271 4.2918316745680638 88 88 88
0.1097889433027284 -0.0413727815621950 4.2854517786182091 146 146 146
0.0746297331076638 0.0080458267585310 4.2876062792006184 125 125 125
0.0740108145295107 0.0234720886473076 4.2886152986262092 143 143 143
0.0897069618925517 -0.0307396690541196 4.2851069992770716 160 160 160
0.0929718279541644 0.0100924927138694 4.2884695614873376 165 165 165
0.0899390633546254 -0.0025791784837340 4.2875835541831915 181 181 181
0.1119375412396930 -0.0285862472300132 4.2866543227612395 147 147 147
0.1029319560132430 0.0179545328587775 4.2898047665990822 150 150 150
0.0828470548234786 -0.0026631490870959 4.2870853797220461 163 163 163
0.1414192441772580 0.0204903982471615 4.2961073216265993 187 187 187
0.0352279732532884 -0.0261617226119226 4.2829794299161303 1 1 1
0.1092664819926218 -0.0278620895700035 4.2865068260827695 142 142 142
0.1013450568933493 0.0264961527152460 4.2902821901025918 113 113 113
0.1090205034477411 -0.0253650340451196 4.2866203177692599 218 218 218
0.0864192778856516 -0.0277374487910399 4.2850912119672389 166 166 166
0.0960118149089109 0.0210908432749002 4.2895972247153882 98 98 98
0.1128130086101948 -0.0408731041327138 4.2858085184678218 56 56 56
0.1163624969392972 -0.0278350583952946 4.2868622764198543 145 145 145
0.0876506119704057 0.0070565749108968 4.2879280030601068 89 89 89
0.0458336671921392 0.0215283509003162 4.2884016041576416 3 3 3
0.0790506608133205 -0.0075472966309465 4.2866260476578839 66 66 66
0.1092246358343839 -0.0292894987276791 4.2864020933867879 109 109 109
0.0668258728681606 0.0001570151595968 4.2866404094481965 225 225 225
0.1093072823870696 -0.0093991271487931 4.2873100258044499 172 172 172
0.1086022755009884 0.0195336964733733 4.2903463396317782 143 143 143
0.0814004544209695 -0.0100895511002173 4.2864097936969214 141 141 141
0.0559429147869409 -0.0013215903916142 4.2859208171948140 177 177 177
0.0826728733182510 -0.0186278732569375 4.2858481159088102 131 131 131
0.0799148466490957 -0.0274548482409919 4.2847299379783221 198 198 198
0.1110243259004692 0.0013713818616740 4.2888149940168638 171 171 171
0.1006313485867003 -0.0408861903209546 4.2851256538914742 140 140 140
0.1088720307878119 -0.0062070201988290 4.2879837502327787 128 128 128
0.0759376205416163 -0.0001373446815930 4.2869882680356612 121 121 121
0.1094992914654560 0.0071861192000585 4.2891678452904287 99 99 99
0.0891485053107177 0.0023347841113216 4.2877402354909435 116 116 116
0.0973092886877703 -0.0053402097299870 4.2876815769153156 110 110 110
0.0522644950514800 -0.0003617221250242 4.2856090404957774 247 247 247
0.0775551132725570 0.0106894344344019 4.2877673290906593 186 186 186
0.0927156663397929 -0.0272723030030608 4.2855583530462784 101 101 101
0.1045359272510472 -0.0371992697669542 4.2858046790263362 144 144 144
0.1061930269382521 -0.0009989490816653 4.2884052173828584 88 88 88
0.1133520651302901 0.0113099234857557 4.2898556543752608 136 136 136
0.0966616250927324 -0.0326808712249103 4.2850924207191312 195 195 195
0.1005578987217758 -0.0214276601509007 4.2857437592323668 180 180 180
0.0965225953388259 -0.0259164090004222 4.2863003869115861 142 142 142
0.0894339255843855 0.0060569573271433 4.2875801633284576 65 65 65
0.1204233755118583 -0.0057007706542369 4.2877977936613743 124 124 124
0.0761437048553332 0.0142609483885186 4.2877301232094496 149 149 149
0.1314539025740070 0.0296545436274282 4.2942629180935814 196 196 196
0.1261594041690731 0.0302952320092614 4.2930997643696376 148 148 148
0.0926229005625608 0.0095825762339943 4.2885092335850166 149 149 149
0.1338231931981307 -0.0398869039798792 4.2903075045163934 220 220 220
0.1278156467211408 -0.0378295901383371 4.2885267781976424 195 195 195
0.0782350187035743 0.0106177409160751 4.2887978767228114 160 160 160
0.1227358123485100 -0.0357664579961022 4.2870586488113558 91 91 91
0.1257646763487183 -0.0004523859000209 4.2892015428710701 212 212 212
0.0973747514082366 0.0211754386406910 4.2898268826431156 161 161 161
0.1493981357019115 -0.0232383198600137 4.2957413622247262 131 131 131
0.1260141384512669 -0.0379636208859169 4.2881863325429244 172 172 172
0.0778291004153160 -0.0355181987508961 4.2839238952737739 128 128 128
0.1225282566879739 0.0009094294932130 4.2890378331250254 227 227 227
0.1003698932102906 -0.0126673618801533 4.2869930916233550 97 97 97
0.0591779457041628 0.0040239398254403 4.2863321812881185 208 208 208
0.0662612227796002 0.0048951612628803 4.2868096600486512 153 153 153
0.0924370506715176 0.0161831154833260 4.2892723007501541 179 179 179
0.0893867449001053 -0.0328210252863154 4.2850425315597418 112 112 112
0.1268381721502417 -0.0092053529662450 4.2890917655373606 125 125 125
0.0894211427622464 -0.0103539116268154 4.2865326083727773 122 122 122
0.0543672910192631 0.0044976495507853 4.2860208452872071 179 179 179
0.0971569774732695 -0.0053177005996165 4.2878421914202773 174 174 174
0.0717701871403875 -0.0258233335160210 4.2845590306972925 203 203 203
0.1365618314552068 -0.0190240478728666 4.2914638210714617 255 255 255
0.1345568597214180 0.0265769343282241 4.2935380120968558 146 146 146
0.0704764838476638 -0.0256047506812808 4.2845299480107926 81 81 81
0.0939006648276085 -0.0288072618722796 4.2854582227654214 140 140 140
0.0502647269033233 -0.0102898676153191 4.2844147254455152 212 212 212
0.1314737187043894 0.0025670106856178 4.2908885919388684 136 136 136
0.0568469042338666 -0.0241858327499274 4.2837968689599570 161 161 161
0.0608382680137166 -0.0261917087742715 4.2838877037519589 221 221 221
0.1274182001894746 0.0233439744120910 4.2920023990119045 168 168 168
0.1310359068917865 0.0235115476675106 4.2933967620493663 202 202 202
0.0924326957235256 0.0075893597736982 4.2883389063367732 144 144 144
0.0789120527938360 -0.0377706329560779 4.2834873768487682 201 201 201
0.1220713058024767 -0.0147400039727205 4.2884866945655196 61 61 61
0.1233878878804582 0.0045249664661157 4.2895627072212514 180 180 180
0.0654887595374383 -0.0042384025310590 4.2859899760126385 225 225 225
0.0906311701716038 -0.0039060956372955 4.2872791030868456 118 118 118
0.1245413142026622 -0.0103639416270409 4.2887712994785154 234 234 234
0.1259407250948220 0.0040906060568486 4.2899985800283318 105 105 105
0.0445411714876599 -0.0442450568760822 4.2824034163330902 14 14 14
0.1229887507461551 -0.0087420450149496 4.2887399594302158 106 106 106
0.0740065269832707 0.0234764129046878 4.2887157196115533 143 143 143
0.0917380887281945 -0.0272104960795192 4.2852182990068659 77 77 77
0.0622256921052643 0.0039178614256086 4.2864877550602740 111 111 111
0.0932121931835386 -0.0276811240783201 4.2856248478373100 69 69 69
0.1351058981207147 -0.0083566620535435 4.2919834304333797 197 197 197
0.1441150278001298 0.0122615565096816 4.2954586290374568 152 152 152
0.0569490574208718 0.0125729891127774 4.2869339490815079 162 162 162
0.1249797189447591 -0.0079708063018678 4.2888328386813681 119 119 119
0.0389482378343490 -0.0300088300132524 4.2833217327664590 216 216 216
0.1169192365799603 0.0098775440948657 4.2898032002659923 206 206 206
0.0536341888501612 -0.0000436616135394 4.2855274567388344 60 60 60
0.1138463378901832 -0.0189294127981406 4.2873253060580732 230 230 230
0.1307436871758382 -0.0069438761148058 4.2900460138168715 151 151 151
0.0849040730555022 0.0148168913414656 4.2885103749797446 89 89 89
0.1189636111415030 0.0104542312387586 4.2898174840834864 215 215 215
0.0348525839756660 0.0007666307038894 4.2854050223302327 179 179 179
0.0691049007359722 0.0132077566620051 4.2877254156702973 121 121 121
0.1293096388569868 -0.0043367995770363 4.2896069551365033 101 101 101
0.0991109606131956 0.0225852516202085 4.2900385532600813 81 81 81
0.0787849379179694 0.0143387745902330 4.2881335142850956 145 145 145
0.0816973276523437 0.0137845520793647 4.2884342484561770 107 107 107
0.1253576226536559 0.0126673404892941 4.2902405429376689 156 156 156
0.0661362238987281 -0.0250395171301245 4.2843295451604835 105 105 105
0.1349578045414072 0.0215472542839146 4.2941553418721945 136 136 136
0.0810183345197380 -0.0184219654716848 4.2857711980205950 181 181 181
0.0425625571231757 -0.0332048158117490 4.2826267701983260 241 241 241
0.0836010874600553 -0.0367950959111809 4.2842793478893393 69 69 69
0.0768466278357941 0.0034503202507576 4.2874267790916942 132 132 132
0.1222796202343953 -0.0359943512017108 4.2869623057041837 123 123 123
0.1348255918558413 -0.0152509495131280 4.2911372839474611 191 191 191
0.0691561297344594 -0.0081330608468266 4.2858895301365045 239 239 239
0.1392262441429703 -0.0030751141732838 4.2930662553013903 153 153 153
0.0799092131719981 -0.0398583402673631 4.2838686582826879 204 204 204
0.0896231612808720 -0.0029449181876900 4.2873579193766451 84 84 84
0.0916306786252001 0.0003378694156903 4.2878834000762893 125 125 125
0.0863145239854007 -0.0083484312216872 4.2867686952759314 177 177 177
0.0534572212468436 0.0200007333272852 4.2872346819764093 129 129 129
0.0638799077239634 -0.0011964427355436 4.2861557340882550 127 127 127
0.1220798704993401 -0.0279640121185286 4.2872783858560553 142 142 142
0.1107984972211299 -0.0175845131973210 4.2872773796159320 183 183 183
0.0691350157320832 -0.0423479309936508 4.2830217567420883 207 207 207
0.1083748689639432 -0.0180636218829380 4.2871180316826427 200 200 200
0.0985889148504768 0.0106503859491246 4.2890084185470441 137 137 137
0.1335199299211365 -0.0202988361451394 4.2900452841655934 234 234 234
0.0998748697906094 0.0223684091947419 4.2899156601277486 117 117 117
0.1373247190817187 -0.0159031791839694 4.2917299200528589 232 232 232
0.0858521067036607 -0.0107092308171638 4.2865930347872911 149 149 149
0.0685735465828983 -0.0285168273854507 4.2841579243294374 157 157 157
0.1002750254875032 -0.0259654926922763 4.2863642938081901 129 129 129
0.0575970293139032 -0.0278364238825494 4.2834628766243830 166 166 166
0.1488887805922998 -0.0374707958396036 4.2969448350553323 248 248 248
0.0959340655095258 -0.0338809419420770 4.2851071288331601 169 169 169
0.0600397023150540 0.0275657866020006 4.2884864269224598 161 161 161
0.0857985330947339 -0.0069512523885418 4.2867734456187163 177 177 177
0.0637279970129594 -0.0341714700807387 4.2832953114202459 198 198 198
0.0847421364788720 0.0080130467315194 4.2878918069520005 166 166 166
0.1331982928282374 -0.0265584386172911 4.2900071012128773 170 170 170
0.0492711946246069 -0.0056841852186020 4.2847008085734393 190 190 190
0.1416564877399998 -0.0067675719054334 4.2927154390449944 222 222 222
0.0625579285775841 0.0067621548680336 4.2867054596923664 140 140 140
0.1194575891304069 -0.0031561770057061 4.2888393732071695 115 115 115
0.0653117084886702 0.0252577903316500 4.2886305071122717 235 235 235
0.0376833559767140 -0.0254301258442909 4.2828596216406112 187 187 187
0.0913389357280779 0.0121786344360034 4.2886074738127720 192 192 192
0.0639955064272143 -0.0034436047520267 4.2860918778091754 172 172 172
0.0911505583809568 -0.0192733190671620 4.2859973255279602 86 86 86
0.0710862930044729 -0.0028857027552632 4.2864230068225240 189 189 189
0.1324640824986064 -0.0301409879136477 4.2900991171167693 147 147 147
0.1212547375020509 -0.0116576717270578 4.2884320755169156 117 117 117
0.0631538178559680 -0.0004337455967371 4.2861072836125089 94 94 94
0.1085798696742042 0.0157890302682048 4.2896966018275471 186 186 186
0.0665173865303947 0.0022783806057580 4.2866321560298299 111 111 111
0.0415645773004480 -0.0159281257176429 4.2844205089288732 216 216 216
0.1053423040560015 -0.0110201641092925 4.2875606227963123 205 205 205
0.1379600423575352 0.0173671839967815 4.2946168323580300 124 124 124
0.0390711348777794 -0.0085335533317441 4.2841458642746444 175 175 175
0.0933892614040193 -0.0317898370913371 4.2851843419797833 118 118 118
0.0692205676371509 0.0266945148973407 4.2888383663829304 158 158 158
0.0941266789399294 -0.0303414790366824 4.2852923437252608 110 110 110
0.0964635015756655 -0.0289146913479198 4.2855600371466673 185 185 185
0.0712787700840562 0.0036533086296520 4.2869411809005973 89 89 89
0.0617255655565554 0.0110588186056087 4.2868551725430786 130 130 130
0.1070801683427515 -0.0281486261436777 4.2862954884952682 168 168 168
0.0555968451119690 -0.0303499700770321 4.2836723218861756 152 152 152
0.0440199956485534 -0.0424266142578536 4.2815948353410471 6 6 6
0.1096435019249067 -0.0245455146121198 4.2865697593878220 121 121 121
0.0874254402935494 0.0229877185362163 4.2892954263300798 55 55 55
0.0637571872325856 -0.0249480576792309 4.2840885661445247 132 132 132
0.0895018281947547 -0.0296054491013008 4.2853178157902123 77 77 77
0.0798879681950050 -0.0274795713235815 4.2848918321274869 163 163 163
0.0884108176818822 -0.0268312928139813 4.2854903245199898 88 88 88
0.0439933066177234 -0.0392906566684620 4.2827931017209080 152 152 152
0.0494795015974942 -0.0109221486050731 4.2844367860473982 140 140 140
0.1097853146311014 0.0106347356585523 4.2894195662414427 207 207 207
0.0383766698980508 0.0063835817007455 4.2863806272738474 176 176 176
0.0999618458814435 0.0270393824691229 4.2900406414631531 166 166 166
0.0667021269743439 -0.0064131652540320 4.2857569823453732 232 232 232
0.0880237180295932 -0.0245160023344231 4.2853632665425652 165 165 165
0.0375387254701392 -0.0316902020403474 4.2825416698487340 153 153 153
0.1061608163435424 -0.0220923247908191 4.2867107434825726 198 198 198
0.0800175041577012 -0.0200782663943509 4.2854354745816892 175 175 175
0.0777127116430210 0.0280891582236001 4.2894117818163133 165 165 165
0.0708999392656969 -0.0235546049109192 4.2849064423343526 139 139 139
0.1110986053604496 -0.0159636237591556 4.2874847201112178 108 108 108
0.0984664840140632 -0.0007048532376897 4.2879320514722714 122 122 122
0.1037879591248492 0.0097175900126661 4.2890561698416265 101 101 101
0.0674745057824054 0.0021542841989436 4.2863490643741695 104 104 104
0.0648489409759660 -0.0202179578421767 4.2846708752824645 103 103 103
0.0909230800593446 0.0064317533365565 4.2882498201814876 132 132 132
0.0668097636838408 -0.0216915694003587 4.2846216449974825 250 250 250
0.0881270224115931 0.0208203309143931 4.2892645543534709 177 177 177
0.0952211856482122 -0.0032883327110924 4.2876110823563165 108 108 108
0.1316441196966456 -0.0133090101166760 4.2909591437418682 141 141 141
0.0904074607272639 -0.0129768772971659 4.2866682194512142 169 169 169
0.0651561500345266 -0.0171415016160902 4.2851847420413582 125 125 125
0.0954866801542249 -0.0228397151985267 4.2859985507907474 148 148 148
0.0427153485081474 -0.0120601223149901 4.2841449322244021 194 194 194
0.0804826594048278 -0.0209807737265381 4.2855566689328697 189 189 189
0.0597142439448903 0.0089893217403885 4.2867477300132171 172 172 172
0.1062183908679783 -0.0051529704245414 4.2879502205037445 99 99 99
0.0660787367656106 -0.0216631465037309 4.2846054922528563 186 186 186
0.0922257963013216 -0.0084551101566978 4.2870263209187858 200 200 200
0.0987086037579233 -0.0415877096422257 4.2847198859232325 150 150 150
0.0643857539397459 -0.0317102252944336 4.2838049404120495 147 147 147
0.0782292828726228 -0.0105281779133085 4.2861610334482130 224 224 224
0.0689864997268978 -0.0306723868413351 4.2840866832498277 172 172 172
0.1160013067415954 -0.0120826328587076 4.2880841149515563 166 166 166
0.0872473132257163 0.0044238581615943 4.2878074883663926 1 1 1
0.0693249039177553 -0.0310168758704732 4.2840219426169988 126 126 126
0.1058169715489875 -0.0019978435665050 4.2882665034718919 160 160 160
0.1415776189025370 -0.0097085919720961 4.2928565815568716 81 81 81
0.0529574525954795 -0.0143061698373361 4.2844377973980334 179 179 179
0.0505449797597075 0.0019003849669423 4.2855297077014400 140 140 140
0.1168490832628496 0.0165330065462885 4.2900922519815223 181 181 181
0.0722674332164294 -0.0282268196231101 4.2843686482563559 134 134 134
0.0696523066496269 0.0250171182577532 4.2885934214866532 10 10 10
0.0487808939362385 -0.0105408019207705 4.2844338604129995 155 155 155
0.1009008087215017 0.0185358632132263 4.2898343294831340 87 87 87
0.0863353887429218 -0.0412772078127106 4.2840721455507271 79 79 79
0.1313948142514148 -0.0053978202683895 4.2902284605521519 124 124 124
0.0780408316819313 -0.0410868836073850 4.2844349785097160 155 155 155
0.1142385216289090 0.0035130632186809 4.2892257561022342 158 158 158
0.0327845543789148 -0.0083034296886624 4.2843282194845331 5 5 5
0.0897063512905191 -0.0351942344690415 4.2846930220172874 130 130 130
0.0501131200636764 -0.0043869609522920 4.2849453292313466 186 186 186
0.1150990039938041 -0.0194073179806482 4.2874484413376379 204 204 204
0.1209016133833774 -0.0276610421265341 4.2871720977441150 229 229 229
0.0642060321912349 -0.0051835812489561 4.2859054313809501 150 150 150
0.0433572024919448 -0.0454328564770805 4.2823071549939735 4 4 4
0.1180152542615394 -0.0254318894499812 4.2873343453123365 107 107 107
0.1366610412075214 -0.0200539222429823 4.2911927607599827 222 222 222
0.0900948371271185 -0.0265551186955590 4.2854616275242163 86 86 86
0.0651177803827192 -0.0378748136986702 4.2830505353827206 125 125 125
0.1306043853437897 -0.0196350949204155 4.2887974780731453 189 189 189
0.1233440856818064 -0.0184869231006078 4.2880791769994149 150 150 150
0.0693072414295885 -0.0363757757258060 4.2835634259410611 131 131 131
0.0640945552459629 0.0056883577600996 4.2866882822360646 165 165 165
0.1108867716750684 -0.0233519653013892 4.2867637036914799 226 226 226
0.1151147667186682 -0.0243232290963026 4.2869667528666220 195 195 195
0.0622439751349976 0.0096314849316839 4.2867798277590223 147 147 147
0.0656347704296407 0.0271525317806279 4.2870377360577461 176 176 176
0.0594250274982067 -0.0444216008617004 4.2819351705334547 161 161 161
0.1065279493177787 0.0282921609655402 4.2905090861785808 137 137 137
0.0350011866825124 0.0046342890293024 4.2853141949982598 1 1 1
0.0692357573252034 -0.0186950748905491 4.2848981912796580 83 83 83
0.0927849753298805 -0.0188850090061527 4.2863397259567364 94 94 94
0.1451117906462474 0.0225846697675350 4.2979679254064260 118 118 118
0.1117997067240551 -0.0058492676714864 4.2881652249869271 224 224 224
0.0684425994938121 -0.0089599366199034 4.2857403968597847 195 195 195
0.0900178226497753 0.0246611567239816 4.2896991328753042 177 177 177
0.0848774509389804 -0.0030892017933918 4.2871344372169569 197 197 197
0.1278342159745941 0.0111655921771963 4.2902304524660879 145 145 145
0.0992350127887109 0.0193627625400648 4.2896593111172869 152 152 152
0.1063278591236411 -0.0149018751917657 4.2873625114732272 153 153 153
0.0741678129087640 -0.0068224911452535 4.2863611473002523 196 196 196
0.0563548117148707 0.0133130877775631 4.2865603812113573 154 154 154
0.0962859946462964 -0.0132270210811829 4.2868045822109631 195 195 195
0.1168332055392144 -0.0038416236592672 4.2886497016494953 114 114 114
0.1357895330942119 -0.0013350977597324 4.2909422467731853 121 121 121
0.1076711157702490 -0.0247821875301374 4.2865890192770371 245 245 245
0.0902380299105330 -0.0014484817066637 4.2874772473866454 249 249 249
0.1431442491881040 0.0239696444953691 4.2981737412091352 173 173 173
0.0721439576720034 -0.0273524045687891 4.2844344658852558 186 186 186
0.0546831053816717 0.0038135701815352 4.2859993522726869 234 234 234
0.0894060881554611 0.0146118816303717 4.2887354841023289 209 209 209
0.1368562100519571 -0.0341351701513052 4.2907868033846528 189 189 189
0.0628224787199778 -0.0439555949808597 4.2828388431806568 224 224 224
0.0502572471416481 0.0199274727419400 4.2870703443304921 148 148 148
0.0904840113919234 0.0157186940833476 4.2889347061513527 101 101 101
0.0402402660510372 0.0022242016772243 4.2855965401383207 209 209 209
0.0551814309329406 -0.0244767980361578 4.2837608787810089 162 162 162
0.0961173148874968 0.0085025337730076 4.2886756818581393 141 141 141
0.0557958501883248 -0.0228150955561439 4.2839127586720673 207 207 207
0.0433115709956658 -0.0118303128924411 4.2842738018117803 161 161 161
0.0961113382293965 0.0211068725896139 4.2895320799740855 181 181 181
0.0624053983073902 0.0042447516839393 4.2864356413327052 88 88 88
0.1392278185366537 0.0269936060234688 4.2977601303826747 127 127 127
0.0622311713930756 -0.0099599882588147 4.2853143428998894 202 202 202
0.0655944569053514 -0.0261727401352802 4.2841826021544751 213 213 213
0.1032604045750762 -0.0137397115462264 4.2870440379719481 105 105 105
0.0605918515055713 -0.0430370865005238 4.2826617303187451 140 140 140
0.0577145841043293 0.0034329410724077 4.2860856887553762 248 248 248
0.1479517275607836 -0.0196921717636184 4.2947865179402172 133 133 133
0.0689778854841805 -0.0328400616784800 4.2839278733839832 134 134 134
0.0943689609667092 -0.0115308108504740 4.2869096768461796 154 154 154
0.0645561801638683 -0.0251182756053594 4.2842324125133935 213 213 213
0.1359630484088106 0.0271390523091497 4.2954760549244826 135 135 135
0.0628685981945556 -0.0247543296183611 4.2842100232598206 255 255 255
0.0844464497039645 0.0171987533488495 4.2886962154603143 121 121 121
0.0641038641070408 0.0062830035875905 4.2867155079045141 159 159 159
0.0591945994610829 -0.0092032959725116 4.2852469470357635 186 186 186
0.0841058850646837 -0.0126948468430255 4.2863023496790964 210 210 210
0.0722229933095565 -0.0415383577152152 4.2834261536975689 125 125 125
0.1427796873279846 0.0267480834861637 4.2986238564014547 209 209 209
0.0683057420278353 -0.0241207328603946 4.2845987641101573 128 128 128
0.0582219876721272 -0.0091618163533492 4.2852893697894521 196 196 196
0.1418439630282461 -0.0091386335029280 4.2931493898069384 215 215 215
0.0622329005051572 0.0070729813150292 4.2866972703950035 173 173 173
0.0712571396429758 0.0074241297362988 4.2872756517370574 184 184 184
0.0947555655994863 -0.0306416662229750 4.2853321136728129 126 126 126
0.1367157485463570 -0.0096410989368746 4.2906194450598258 153 153 153
0.0560580586595547 -0.0414618919641925 4.2824823663479163 234 234 234
0.0722746951133115 0.0172137108063173 4.2877842117920837 157 157 157
0.0519339004063727 -0.0091750718376649 4.2847451659102012 222 222 222
0.0601871158514995 -0.0094001101143483 4.2853099919077628 158 158 158
0.0378565756311167 -0.0328466275769209 4.2822477653002720 194 194 194
0.0901748046134683 0.0283125549240328 4.2899188647511366 201 201 201
0.0645609372312123 -0.0087349612852194 4.2856648054870758 168 168 168
0.1383045538388257 -0.0167689137074581 4.2920844884862133 229 229 229
0.0612365361733320 -0.0086460846692812 4.2853382175101391 217 217 217
0.0660217754867156 -0.0235836103589221 4.2845213992611804 89 89 89
0.0661734243941816 0.0074893826482934 4.2869764711268115 221 221 221
0.0708888221063346 -0.0234903959420950 4.2846690141809338 184 184 184
0.0929697010179071 -0.0046176416451683 4.2873693803726862 149 149 149
0.1451272291571694 0.0298215733182392 4.3015875056248651 158 158 158
0.0687857134256891 -0.0202754958126144 4.2846884215086174 139 139 139
0.1457056211589929 0.0284517252156256 4.3010040970556176 206 206 206
0.0406207666713417 0.0076443157141932 4.2859334027168421 226 226 226
0.0873430631836979 0.0186726747584307 4.2890108888844702 176 176 176
0.0707420050841076 -0.0077656953291532 4.2860493420103705 204 204 204
0.0632309979642701 0.0080657338679167 4.2867976421778708 154 154 154
0.0622412154221485 -0.0232039900893023 4.2843254106017898 209 209 209
0.0557622143528216 -0.0081537831512089 4.2850748688904625 178 178 178
0.0528000028483745 -0.0210513295348270 4.2839011957832778 228 228 228
0.1416401236871575 0.0288115061168893 4.2982479876130588 134 134 134
0.0610890820584927 0.0086716147243026 4.2867247757712521 152 152 152
0.0871328692490278 0.0043773128388901 4.2886230284254259 69 69 69
0.1471123786823629 -0.0160259130900864 4.2942599811609874 149 149 149
0.0688260212233837 -0.0064671319642496 4.2860067667899635 193 193 193
0.0534516817076149 -0.0300551300081213 4.2838587548238110 164 164 164
0.0545747940660712 0.0230561128401712 4.2876310790325292 158 158 158
0.0697825054199682 -0.0210880346651548 4.2848890586896893 199 199 199
0.0544896640694153 -0.0368025281615921 4.2826943384106437 111 111 111
0.1216738333193024 -0.0037455184377593 4.2888106900384351 218 218 218
0.0472588480623136 0.0230243016852476 4.2885524356292750 177 177 177
0.1111230448295506 0.0168634665940326 4.2899060212630085 111 111 111
0.0419075874084230 -0.0380959934454931 4.2822767379363693 9 9 9
0.0572089256446787 -0.0210410567394893 4.2841822387738340 223 223 223
0.0805522800597601 -0.0144209779335314 4.2860169859992485 143 143 143
0.1254252042544272 0.0229819617465927 4.2915450665226755 172 172 172
0.0528716956537371 -0.0056084732649887 4.2850911074692961 222 222 222
0.0638095848746902 0.0100594642577171 4.2867781782762586 69 69 69
0.0956679237412802 -0.0420179203958458 4.2845634734061626 102 102 102
0.0671126536896130 0.0110175228916701 4.2873564625920491 126 126 126
0.0542665515649929 0.0112317946894571 4.2866052252480982 202 202 202
0.0575675640787336 -0.0194506202275374 4.2842873001097077 182 182 182
0.1093734236492940 -0.0130030734450015 4.2875680083664394 161 161 161
0.0554930689004468 -0.0048038457119281 4.2853406150696127 235 235 235
0.1190373805469699 0.0311028592462233 4.2913101168619576 174 174 174
0.0666826734829723 0.0220125204519835 4.2882733832580486 203 203 203
0.0693144514038435 0.0284367043101987 4.2889217370554729 153 153 153
0.0587337276138513 -0.0046241003738802 4.2854701638825663 186 186 186
0.0569418706772246 0.0086412198605423 4.2865046283726898 187 187 187
0.0707701665695966 -0.0350915639138381 4.2838292709988464 114 114 114
0.0951312279314887 -0.0044772752564154 4.2875727268776407 73 73 73
0.0596220967931454 -0.0042611635462526 4.2855830088279214 210 210 210
0.0884976192639502 -0.0241269619831024 4.2856204573250407 165 165 165
0.1478614342994249 -0.0116612576790864 4.2954869072966648 143 143 143
0.0655765724163031 -0.0180622523609816 4.2848836030346265 199 199 199
0.1154236941067536 0.0133221475419985 4.2899129340075186 114 114 114
0.0589871662572100 -0.0342861130976604 4.2832671914406228 166 166 166
0.1165387507321356 -0.0027224111124667 4.2887500620271766 114 114 114
0.0512666277565721 0.0258225962222194 4.2875599200812564 254 254 254
0.0577139701797086 -0.0040596593875537 4.2855989657192026 221 221 221
0.0455822743051055 -0.0354273001243591 4.2824737856777855 97 97 97
0.1415331530992817 -0.0032144374284218 4.2929571208294961 167 167 167
0.0642780781149955 -0.0178680979214569 4.2848399961295822 62 62 62
0.0678887729080086 -0.0257892152786881 4.2835848805026933 171 171 171
0.1199726142865234 0.0136225552882818 4.2902122164256697 132 132 132
0.0637486338708643 -0.0176541244618391 4.2847840233668331 154 154 154
0.0852527600728008 -0.0117873594827506 4.2865458585652600 81 81 81
0.0593830179716609 -0.0021446902680428 4.2858273541192933 124 124 124
0.0684265581541565 -0.0027250314600916 4.2863064868697274 74 74 74
0.1431603380456075 -0.0103178108961005 4.2935831109372229 249 249 249
0.0532572913887776 0.0133947076615926 4.2866579345437836 255 255 255
0.1099972403904927 -0.0023692154244157 4.2884840962819117 239 239 239
0.0534569692000614 -0.0328525493333086 4.2831073684899312 185 185 185
0.0863686315150304 -0.0098903214389862 4.2863867049837809 133 133 133
0.0979484634110120 -0.0385464715032801 4.2849025456170464 161 161 161
0.0652833115720793 -0.0166376369941532 4.2849856745655712 171 171 171
0.0656866733849970 -0.0161871644218703 4.2850325460950174 229 229 229
0.0663780384633295 -0.0162050461064996 4.2850890994200315 226 226 226
0.0733453573898540 0.0139107742698751 4.2877885878367481 17 17 17
0.1368068573464504 -0.0106385669300982 4.2916588277727792 212 212 212
0.0715946208312530 0.0116720993370565 4.2876497838842091 91 91 91
0.0606306481535555 -0.0163274736409868 4.2847199287931668 168 168 168
0.0945404976210389 -0.0178033106320966 4.2864216473958745 182 182 182
0.1197717671752567 -0.0405694523897003 4.2861618421016079 255 255 255
0.1393544176811558 -0.0007064083539781 4.2920713890208368 216 216 216
0.0713011747250346 -0.0016846018338162 4.2864677581514004 177 177 177
0.1237969978362777 0.0237770343137816 4.2908888125978732 140 140 140
0.0474439200236128 0.0139647183702750 4.2864821630948127 245 245 245
0.1463633285004609 -0.0028390171840630 4.2947357162536344 171 171 171
0.1019341137645184 0.0137647585435576 4.2892785196227301 91 91 91
0.0705180788585617 -0.0152557665692079 4.2854015722911782 191 191 191
0.0851625193967260 0.0130620496754392 4.2884552005094800 151 151 151
0.0403501090001910 -0.0016545325791669 4.2851431987068898 221 221 221
0.0684626353731291 0.0107176643013274 4.2872920177277338 190 190 190
0.1237044475405916 -0.0390299398718816 4.2866576173344946 206 206 206
0.0338165579534416 -0.0193014099573708 4.2839651048117391 202 202 202
