ply
format ascii 1.0
element vertex 648
property double x
property double y
property double z
property uchar red
property uchar green
property uchar blue
end_header
0.0804322630790192 0.0049773337051260 1.0484122837444692 235 235 235
0.0812791593080665 -0.0084094997281533 1.0492242713889419 246 246 246
0.0822884942134005 -0.0177848799808157 1.0500969168964887 224 224 224
0.0826203082495442 -0.0117395434729560 1.0494058876765557 184 184 184
0.0819731320831830 -0.0105881858254548 1.0492735997536271 233 233 233
0.0811107773318019 -0.0053850082507555 1.0490540285667971 207 207 207
0.0805058960425653 0.0292278878230589 1.0519772982508884 235 235 235
0.0805761035371137 -0.0043119785498689 1.0487860067523553 241 241 241
0.0816196290824548 -0.0035775060709064 1.0491881824932370 230 230 230
0.0824134281709600 -0.0019488979757937 1.0490033249705253 219 219 219
0.0815940022873423 0.0123596716899458 1.0493265805253598 221 221 221
0.0808477566681466 -0.0031540532753215 1.0488110655697793 228 228 228
0.0810904424311282 -0.0062678289453492 1.0488792851864821 255 255 255
0.0809725308130177 -0.0057818371213712 1.0489511078718519 170 170 170
0.0812932715055448 -0.0075409415743510 1.0493890969117288 148 148 148
0.0816838972182454 0.0224011658098285 1.0507898678219691 202 202 202
0.0830773513591286 0.0032435873529931 1.0494328808465612 203 203 203
0.0871429251753500 -0.0243645320312428 1.0538613291788523 223 223 223
0.0829307300680946 0.0173977896642336 1.0496701242978086 224 224 224
0.0840085367255718 0.0329465464736652 1.0553446531188271 184 184 184
0.0877782589115621 0.0034668163285038 1.0511141524934233 241 241 241
0.0913980498977838 0.0335378986695075 1.0605503797888989 153 153 153
0.0836697576072266 -0.0239479971766491 1.0520062461650861 245 245 245
0.0909782791562210 -0.0234648294044809 1.0554490810924475 255 255 255
0.0879702338127604 0.0184611851634045 1.0524744283304266 162 162 162
0.0893992565664114 -0.0232148611874959 1.0547611907930305 255 255 255
0.0832153063123011 -0.0052931363930126 1.0494648293806830 232 232 232
0.0881278365760835 0.0188125328406683 1.0525813624380660 234 234 234
0.0833996545778998 0.0047505381118917 1.0495655025220745 200 200 200
0.0825392183232492 0.0047859278311453 1.0494049485431136 239 239 239
0.0851176657080334 0.0049548062212893 1.0504763426038266 173 173 173
0.0826868732211853 -0.0050902595172727 1.0495277344251039 146 146 146
0.0843522892778883 -0.0095564356570380 1.0502068282850010 241 241 241
0.0904341799486235 0.0054545372138565 1.0525971450931630 172 172 172
0.0913142519278754 -0.0221321370848331 1.0556581042221040 239 239 239
0.0899123726576121 -0.0221307291790557 1.0547401199705091 221 221 221
0.0889984308282717 -0.0220404368397222 1.0542023492709192 247 247 247
0.0927562535762612 -0.0229621513747560 1.0564147693459034 187 187 187
0.0834716190147852 0.0054635858123304 1.0495574181813121 225 225 225
0.0862609242908270 0.0201099783709768 1.0520366873965648 171 171 171
0.0897089950860866 0.0202451348193195 1.0538944492683053 206 206 206
0.0931414713646861 0.0063873294660657 1.0532361587539476 238 238 238
0.0937216465777105 -0.0215920327638421 1.0562011713237673 238 238 238
0.0919116949579591 -0.0216133048930798 1.0553415647492068 245 245 245
0.0930568197231947 -0.0225480654948045 1.0562454652435196 227 227 227
0.0832276143895476 -0.0092855564775811 1.0500875400271221 160 160 160
0.0934944024727712 -0.0223398402746649 1.0564781159984882 139 139 139
0.0872830848996196 0.0206952092724627 1.0520130053014121 215 215 215
0.0870100984417124 -0.0212789453258098 1.0530895778018097 128 128 128
0.0915479161040444 -0.0088586664085927 1.0529479940013986 228 228 228
0.0835106831838387 0.0208202062970015 1.0516665039047097 154 154 154
0.0859614742850317 -0.0210863987907025 1.0523277074661077 254 254 254
0.0874696416829368 -0.0214359501489883 1.0533433887967947 218 218 218
0.0856271119735889 -0.0207252925090186 1.0521564248199764 176 176 176
0.0871796814510405 0.0076363366582374 1.0512227435173789 149 149 149
0.0849803051640492 -0.0208279820707352 1.0518579063915501 246 246 246
0.0930906430724508 -0.0201547227259930 1.0557032500977495 234 234 234
0.0919097742311899 -0.0206105494194536 1.0549915887010770 253 253 253
0.0882632456005403 -0.0206422994739027 1.0532045529395688 160 160 160
0.0885106569183907 -0.0202459415842556 1.0532816477541849 234 234 234
0.0877032480475180 0.0082118555324561 1.0511830631871142 177 177 177
0.0905164861803415 -0.0205562222287293 1.0547517813863325 154 154 154
0.0859609742012062 0.0084460329488030 1.0510329884184926 174 174 174
0.0873632120481660 0.0224633022055628 1.0527709293237528 217 217 217
0.0903611224772893 0.0087298292612407 1.0522821023133024 206 206 206
0.0938037413240658 -0.0197432212369072 1.0560537866779960 168 168 168
0.0909529492065259 -0.0192555220928180 1.0544400993851570 217 217 217
0.0918567571132208 0.0229854551445888 1.0551869769568236 162 162 162
0.0837363497371755 -0.0190966830442509 1.0507081912070471 140 140 140
0.0841615431036109 -0.0191468104574468 1.0516668085292225 229 229 229
0.0867846123856786 -0.0188483642730636 1.0520397223319422 147 147 147
0.0825525866989888 0.0233462963463745 1.0513921809581352 200 200 200
0.0868771948029508 0.0094239743741677 1.0513547567132138 214 214 214
0.0877319847995187 0.0239961481003918 1.0535643036567659 210 210 210
0.0922628221596783 0.0098458966626361 1.0533567436498559 235 235 235
0.0886110614241750 -0.0173058405756282 1.0528619176386409 231 231 231
0.0832014998349206 0.0251781419360513 1.0520964380263997 250 250 250
0.0880124725483648 -0.0170759968501886 1.0522172358594146 255 255 255
0.0855334844345588 0.0244027372597279 1.0526812372157006 239 239 239
0.0858733007198049 -0.0167911301330328 1.0512274220718287 235 235 235
0.0860493585117285 -0.0178179432364682 1.0516147393954054 244 244 244
0.0828900290770442 -0.0079630831526303 1.0496533313955705 255 255 255
0.0857798906672311 -0.0078618882476693 1.0505412842560375 237 237 237
0.0863383529708442 -0.0164306583427610 1.0516808271155138 137 137 137
0.0893265278061970 -0.0042743833750736 1.0520361135154304 192 192 192
0.0887968030176232 0.0110941450336196 1.0526681977633052 205 205 205
0.0889914407338063 0.0112912886198797 1.0522559563790921 158 158 158
0.0864271346070123 -0.0169597693810106 1.0517969337248856 236 236 236
0.0882458286606511 -0.0153431501829520 1.0520124005124292 237 237 237
0.0820558561142339 0.0251109643654161 1.0514877173636168 188 188 188
0.0889264668585176 0.0120151595091524 1.0514865041005688 117 117 117
0.0893493367413352 0.0119977522907873 1.0519947494640345 192 192 192
0.0860451413852527 0.0259398665183367 1.0538009110405702 177 177 177
0.0876199255826224 0.0257826544338543 1.0539528985000877 179 179 179
0.0845807982445154 0.0125203460768103 1.0506418594831899 139 139 139
0.0902792828045565 -0.0139932233140563 1.0529858258637477 176 176 176
0.0834803309663174 -0.0154806170204717 1.0502163018100210 225 225 225
0.0922138798353287 -0.0029888301314229 1.0530888004559569 189 189 189
0.0872701887405701 -0.0152585159616264 1.0518016989032910 220 220 220
0.0833144914800155 -0.0140169332433877 1.0500059122065331 214 214 214
0.0898466890396890 -0.0136665436954818 1.0526687732331406 174 174 174
0.0851149094128789 -0.0146925922375046 1.0507785120555244 253 253 253
0.0869639639636466 -0.0136807403529683 1.0516319514058534 221 221 221
0.0802171434961690 0.0134840752022241 1.0491711562442179 230 230 230
0.0876093246434580 -0.0071629989630492 1.0518112686914756 220 220 220
0.0872331669119384 -0.0129522950954927 1.0514830319549031 248 248 248
0.0899775555456994 -0.0025144412381827 1.0519038021104079 171 171 171
0.0901363645989669 -0.0128297345048288 1.0521509317053757 164 164 164
0.0829604207588283 -0.0142751566781196 1.0496486872386162 138 138 138
0.0835636153406169 -0.0128603404608036 1.0498952862867263 212 212 212
0.0902548133462669 -0.0134627243744439 1.0523291538518462 229 229 229
0.0837455479360200 -0.0028932931627437 1.0496963153584240 229 229 229
0.0867523287272127 0.0148614031655423 1.0514728498106347 215 215 215
0.0886710086425843 -0.0069521240654650 1.0517716625500784 171 171 171
0.0900173029884113 0.0151524482057590 1.0526655425978668 193 193 193
0.0839711088329345 -0.0120444474751440 1.0499938424060760 210 210 210
0.0899707042141001 -0.0124415683681821 1.0526696705693295 255 255 255
0.0865277285355449 -0.0124479048985716 1.0512028141919936 236 236 236
0.0883084081901873 -0.0117238600888996 1.0516591982586809 164 164 164
0.0906647700295132 -0.0115255667303061 1.0525979647383266 171 171 171
0.0877714893333580 0.0156208841200323 1.0519519604521657 205 205 205
0.0892521734102872 -0.0113783724951025 1.0522066947555733 241 241 241
0.0881218469399298 -0.0119828677468626 1.0519200893405236 219 219 219
0.0839977851527701 -0.0113685059646904 1.0506130853030407 223 223 223
0.0854527153545420 -0.0066346548875349 1.0504446861675329 255 255 255
0.0878051483738783 -0.0106484919218784 1.0509894732298839 213 213 213
0.0859424058973645 -0.0114760686585578 1.0507054548909585 228 228 228
0.0921201714784057 -0.0103811183241846 1.0525716146337516 228 228 228
0.0859843676670795 -0.0110915995355945 1.0503617338847857 176 176 176
0.0899369923240496 -0.0109333288540517 1.0525057527328954 238 238 238
0.0935702499402567 -0.0108478621690066 1.0542315188163067 189 189 189
0.0884706281307100 -0.0099851327814614 1.0518352411823146 200 200 200
0.0848615046416976 -0.0108084650037209 1.0502078791519336 171 171 171
0.0838004584975177 -0.0015106257939907 1.0497669754430468 229 229 229
0.0858527581046328 -0.0107257616785548 1.0506570443735606 251 251 251
0.0891115484796084 -0.0090408085530290 1.0521469517317856 255 255 255
0.0805344521616714 -0.0106397135050514 1.0488261636712819 221 221 221
0.0895506302225706 0.0270603521481196 1.0557651522527620 206 206 206
0.0833822593441470 -0.0106025558939539 1.0500001082254871 251 251 251
0.0845498826730940 -0.0088034042561353 1.0506614455436682 255 255 255
0.0922309173864089 -0.0081378400434926 1.0527999771101852 187 187 187
0.0831344459206311 -0.0083926244461970 1.0494056169585120 168 168 168
0.0871785013798564 -0.0078716680276105 1.0511401061261523 183 183 183
0.0852711555127284 -0.0077538929808977 1.0505047865081325 238 238 238
0.0818656677141476 0.0285503236940142 1.0510199233658408 186 186 186
0.0910734964657003 0.0298564771349123 1.0575372007923689 236 236 236
0.0871480744390382 0.0001140008352702 1.0506961495556952 233 233 233
0.0918915678926374 0.0322585866789439 1.0596019491265032 192 192 192
0.0890378828577678 -0.0049028013496258 1.0519989365823814 190 190 190
0.0854264257825690 -0.0043944532216127 1.0496815253201721 242 242 242
0.0837984524249407 -0.0055288935175496 1.0495868591696342 255 255 255
0.0914905835326799 -0.0053031091577213 1.0520525496552253 185 185 185
0.0821600765172616 0.0311856196292247 1.0529655029573872 178 178 178
0.0815128068480048 0.0007168889213719 1.0489224494390199 221 221 221
0.0835158776086467 0.0001734544270661 1.0495505749252676 238 238 238
0.0811439542959900 -0.0048077130951407 1.0489168190842717 210 210 210
0.0837426839913151 -0.0047100082402027 1.0498542024528896 212 212 212
0.0837386694826893 -0.0047096000102118 1.0498502684537248 212 212 212
0.0859515996950892 0.0019021616051909 1.0499651679829471 192 192 192
0.0819337354970044 0.0019078853308473 1.0486356512340360 154 154 154
0.0848730213988574 0.0020889561674469 1.0497562651318042 195 195 195
0.0843365249040514 -0.0039786211676568 1.0497797193529042 244 244 244
0.0929830655122889 -0.0035728984878880 1.0530475302107272 182 182 182
0.0861384893601477 -0.0034755949704761 1.0505062391789239 225 225 225
0.0896131991402285 -0.0033711553549340 1.0518906870857430 253 253 253
0.0848101374871231 -0.0028722670017943 1.0498744667064075 225 225 225
0.0827379171508569 -0.0027949292059338 1.0493305519336935 223 223 223
0.0855982839173504 -0.0026938106863289 1.0501793068138143 180 180 180
0.0882057070288532 -0.0022250227202896 1.0512989519989349 165 165 165
0.0917285548257575 -0.0239805859255599 1.0560761941848964 219 219 219
0.0884135412169301 0.0042404483657167 1.0510013177279323 255 255 255
0.0841317165358663 -0.0019988532904761 1.0497013899532630 231 231 231
0.0922830070176603 -0.0238622893754639 1.0559274405054817 175 175 175
0.0858911254132132 0.0050934416765925 1.0502856467279409 230 230 230
0.0820223875609440 -0.0237390552167498 1.0517805897154400 163 163 163
0.0853162403684147 0.0052984597384532 1.0501141184689546 230 230 230
0.0882705681506562 -0.0007876891378121 1.0512131121008357 239 239 239
0.0856522847200291 0.0066325307275905 1.0502234967017716 207 207 207
0.0887575029249611 -0.0004769852741498 1.0511271358968772 206 206 206
0.0832490499783233 -0.0005514179970595 1.0495874110951766 114 114 114
0.0919172138775440 -0.0002596845947954 1.0525259656029524 238 238 238
0.0869195426075693 -0.0003638734600325 1.0509383891653916 170 170 170
0.0845900108722376 0.0075497280968471 1.0504899829103516 161 161 161
0.0921229187808541 -0.0231651610054650 1.0558004341257756 211 211 211
0.0889703604701225 0.0051512931059622 1.0517420740225012 239 239 239
0.0911122123909840 0.0051960569668363 1.0520595303822062 194 194 194
0.0842482888047418 -0.0002955524315749 1.0499624505594474 192 192 192
0.0830321007318840 0.0080154653822026 1.0494389823291754 223 223 223
0.0864603554197842 0.0085853016316498 1.0506956959154652 228 228 228
0.0860886284854502 0.0000505306029932 1.0503851598333416 248 248 248
0.0878133881983581 0.0086336323316385 1.0513612510403116 231 231 231
0.0860915164140833 0.0064776763428319 1.0507090649592588 232 232 232
0.0888743215713486 0.0091481184822047 1.0514720068306320 234 234 234
0.0861840222958335 0.0012254784812079 1.0504310678374751 197 197 197
0.0835919861568450 0.0102055235877443 1.0503740836779289 184 184 184
0.0833974582337837 0.0071812900739430 1.0498357449973887 187 187 187
0.0886790008286112 0.0106634260459050 1.0513706403159186 176 176 176
0.0823450265700193 0.0018160581406984 1.0490044254552484 229 229 229
0.0841387102867596 0.0019677767947314 1.0494219789299408 198 198 198
0.0870268335191472 -0.0224043488672398 1.0532558054114938 240 240 240
0.0829743321181423 0.0085865814840332 1.0492976687424940 180 180 180
0.0848670878149901 0.0086112489019741 1.0498542976767369 180 180 180
0.0848679836461191 0.0086136454124659 1.0498703198821870 180 180 180
0.0871158092784951 0.0087087269270502 1.0505435147489721 189 189 189
0.0890512644549404 -0.0207068531867604 1.0535733145167834 249 249 249
0.0805451840899755 0.0132560211057768 1.0494720407652391 167 167 167
0.0841739061446185 0.0109791167961549 1.0505740485687050 179 179 179
0.0922178761400333 -0.0120048646237399 1.0544855187798425 198 198 198
0.0836635025845574 -0.0084765463214426 1.0499081936065238 251 251 251
0.0847520919490590 0.0249965920467799 1.0527361092928096 143 143 143
0.0823214369991283 0.0268141722940677 1.0522086649626832 167 167 167
0.0895802312809995 0.0291961179484430 1.0566016744646043 225 225 225
0.0824719368506672 -0.0171064438716089 1.0502262633050508 169 169 169
0.0890272749416900 -0.0156539281843096 1.0524551859878202 187 187 187
0.0848768688507030 -0.0193706932715345 1.0514544524970699 233 233 233
0.0867801863798612 -0.0027518376467565 1.0505651416793556 173 173 173
0.0885559767329259 -0.0084692951083270 1.0527472728397678 189 189 189
0.0896963615502340 0.0185151550140645 1.0512697361668035 195 195 195
0.0831306998896119 0.0310533351873049 1.0535698101009059 216 216 216
0.0810192578704550 0.0141741328859173 1.0485002651255020 210 210 210
0.0885500635799763 -0.0109610553292272 1.0522864704015604 181 181 181
0.0837649363834903 0.0316908774360870 1.0547773660556858 204 204 204
0.0955602564931788 0.0196876560160310 1.0554961890852759 111 111 111
0.0907547286518741 0.0024169530499448 1.0520776834391432 221 221 221
0.0799894077841496 0.0319210765826192 1.0528604950778955 196 196 196
0.0883828769572481 0.0029255482278853 1.0505845319075475 252 252 252
0.0972680913407359 -0.0232663871945672 1.0595363691478203 231 231 231
0.0983776413299960 -0.0232086647684621 1.0592344072015289 189 189 189
0.0962802533327783 -0.0228967185910298 1.0569828748717625 206 206 206
0.0997588138436431 0.0048525504332606 1.0566350122130905 184 184 184
0.1067668579544210 0.0050604531515756 1.0609674078917546 227 227 227
0.0972791321420795 0.0049619085861011 1.0546129793837267 203 203 203
0.1073597277708447 0.0054466861094150 1.0616158502851867 230 230 230
0.1000009027040241 0.0194918226355977 1.0591544777554343 43 43 43
0.1035769968220818 0.0197195914248891 1.0634834109913456 204 204 204
0.0974906097360686 -0.0221103294392652 1.0585228443431591 220 220 220
0.0893328517343118 -0.0213654373128150 1.0539890705703221 221 221 221
0.0937519164482155 -0.0096701305031017 1.0535028980811281 230 230 230
0.0816501441174505 -0.0240709338195396 1.0514633837764400 241 241 241
0.1052513845397978 0.0062349010863983 1.0596197798607494 212 212 212
0.1046135143229880 -0.0217604909686981 1.0653427907636916 199 199 199
0.0820031599162187 0.0060877393601120 1.0481635666613898 161 161 161
0.1044146588371116 -0.0205123433394980 1.0649888880625331 201 201 201
0.0968816680368209 -0.0217978126997740 1.0586530316924230 244 244 244
0.0961798101713552 -0.0217174180086612 1.0579612282076951 227 227 227
0.0950227519217627 -0.0203607096779477 1.0581564110915684 205 205 205
0.0799272746628426 0.0063112533729158 1.0484878248054057 244 244 244
0.0883196097471417 0.0063625058903171 1.0512049509283681 208 208 208
0.0965138375962394 -0.0215389209176640 1.0576863358478554 155 155 155
0.1015594895219819 -0.0213402420996536 1.0615014834233576 164 164 164
0.0957416857090806 -0.0094748657079022 1.0546618578087990 201 201 201
0.0823954354253344 -0.0010109549629839 1.0491624393026180 56 56 56
0.0916992114053382 -0.0095269185258908 1.0524545093539526 222 222 222
0.0953722384079779 0.0069868018638469 1.0539576546272031 218 218 218
0.0999427787944392 0.0217271151747871 1.0586790480909403 198 198 198
0.1004011024496141 -0.0189518512675503 1.0600260732164839 181 181 181
0.0947882008299457 -0.0209644958699879 1.0578667557013937 228 228 228
0.1069712688360676 -0.0026100057972984 1.0601683016788814 165 165 165
0.0933013734168767 0.0221811943233755 1.0565760577682424 198 198 198
0.0952421634138292 -0.0207447696162224 1.0568337126707681 144 144 144
0.0822124018270573 -0.0198268885088101 1.0504225576044335 164 164 164
0.0973868652466478 -0.0187842551403469 1.0566867522789971 182 182 182
0.0885611921786518 0.0073928509535926 1.0511033200971374 223 223 223
0.1005538853498063 -0.0185697056709520 1.0596094448632367 255 255 255
0.1038838635234401 -0.0184297651248246 1.0628141355315273 83 83 83
0.0948906663647089 -0.0052384738641609 1.0546692431411084 221 221 221
0.0944458423341384 -0.0185411240630852 1.0561024873254705 221 221 221
0.0924332096857435 0.0224333463711010 1.0550101385663975 188 188 188
0.0965018675310563 -0.0203793023326592 1.0571180120511254 241 241 241
0.0998103973486479 -0.0051066798952571 1.0560219524604524 169 169 169
0.1033993178791943 -0.0199518592792906 1.0625229806459691 250 250 250
0.0850856810889535 0.0081414472718101 1.0503690651763677 214 214 214
0.1018607826350775 -0.0193869855243160 1.0611172448434569 240 240 240
0.1011492405181066 -0.0193603131174316 1.0604026728118747 95 95 95
0.0816510707202493 0.0085703390034351 1.0490041258212572 232 232 232
0.1062342067202263 0.0090380365393543 1.0604536731725300 232 232 232
0.1011404737176910 -0.0191209413368042 1.0629670696967255 224 224 224
0.0880580651988044 -0.0170917435958324 1.0527882630250462 255 255 255
0.0973384934538398 -0.0191122114438312 1.0593454383665872 233 233 233
0.0986408350963811 -0.0190222623681062 1.0581556076924807 187 187 187
0.1023518288408106 0.0215729586423994 1.0642633056108042 199 199 199
0.1012944835345845 -0.0188395348474126 1.0610738827439916 112 112 112
0.0817691016062191 -0.0086774930242468 1.0490240335566343 254 254 254
0.1084929277321655 -0.0044768020508890 1.0619898109177945 235 235 235
0.0889529992718211 -0.0162520789165179 1.0525635466256971 227 227 227
0.0893556214252974 -0.0158635514049619 1.0528699775658492 158 158 158
0.1041151568728786 -0.0079472912379941 1.0600391329142240 230 230 230
0.1076230445056503 0.0099203808190959 1.0632129201845173 198 198 198
0.0976194035151724 0.0252916281250508 1.0605931935741626 253 253 253
0.0918137841669781 -0.0158050757994662 1.0542734619952210 224 224 224
0.1015429593943221 0.0101481662485963 1.0579415546024502 131 131 131
0.1010002119587554 -0.0174363635921561 1.0597609998485578 176 176 176
0.0987649407545988 0.0259311277351044 1.0616222610742105 137 137 137
0.0978915697189582 -0.0150802218849010 1.0564213363878829 222 222 222
0.0938037280813417 0.0257872397930544 1.0576150170812968 184 184 184
0.1020959182528557 0.0223465317273488 1.0651134108753331 186 186 186
0.1048167255862404 -0.0149174662412668 1.0624942415797827 204 204 204
0.1021127426742114 -0.0169902214188627 1.0608726876826924 195 195 195
0.0798237862887635 0.0251779675811105 1.0506457441636208 211 211 211
0.1015782215393438 0.0106169149750733 1.0569449318043413 216 216 216
0.1004219425368049 0.0106717654470480 1.0551954079693533 220 220 220
0.1047185732992008 0.0108297915830241 1.0603248814603707 209 209 209
0.0812770359744525 -0.0147046867525826 1.0492663177003136 224 224 224
0.0983431718201237 0.0263769476434912 1.0617479244569514 201 201 201
0.0944371123981717 0.0263756512419325 1.0576086084608629 233 233 233
0.1057457023938786 -0.0074416824848010 1.0599594719807199 235 235 235
0.0998743444853870 -0.0165025558331391 1.0583032746544336 138 138 138
0.0821658759756824 -0.0146802789035282 1.0497832721587426 255 255 255
0.1051201239035189 0.0111655192923158 1.0598854938986404 193 193 193
0.0931594662613028 0.0263031905724278 1.0560939088181516 234 234 234
0.1025944782502555 -0.0141316619793695 1.0604099829609099 184 184 184
0.0992377893266040 -0.0162652596586183 1.0581858110765596 151 151 151
0.1053480737813714 -0.0161114968871109 1.0628145699193634 236 236 236
0.1081903183035414 -0.0158385689544651 1.0676303275525154 175 175 175
0.0952725776808415 -0.0156543352234489 1.0559067245307188 224 224 224
0.1068719939096697 -0.0153231147194826 1.0651804273224783 255 255 255
0.1017492709669451 0.0229097350375061 1.0638904045502455 8 8 8
0.1085288630555676 -0.0150960558201188 1.0662514132833125 195 195 195
0.0999970371695297 -0.0138158065592654 1.0585026893809715 243 243 243
0.0815235330741076 -0.0136883551259699 1.0495137736809348 239 239 239
0.0934081292875567 -0.0042657337198705 1.0534371000067255 167 167 167
0.1059214230898260 -0.0147214450661749 1.0634204859951395 195 195 195
0.0996948341610467 0.0119144659714982 1.0563487556795232 248 248 248
0.0987697166381661 0.0119451691504360 1.0559150845364262 217 217 217
0.0817814400717023 0.0010710263265579 1.0494474921497798 129 129 129
0.1021416417355429 -0.0147210016685909 1.0594958470895608 226 226 226
0.0891036430054394 0.0275611017979171 1.0547568577226434 218 218 218
0.0891037988807364 0.0275603295515541 1.0547368068129239 218 218 218
0.0966444208560507 -0.0145081829908719 1.0569363367112072 235 235 235
0.0930469675906936 0.0120014763368979 1.0531147625757975 209 209 209
0.0944955667573252 0.0283037806751005 1.0593197810007742 182 182 182
0.1048829466477659 -0.0070864719683412 1.0600159606590593 215 215 215
0.1021870617253270 -0.0137924014169331 1.0586004879233541 219 219 219
0.1078828792535904 -0.0136743811154653 1.0666924574969705 226 226 226
0.0880772308842034 0.0227396567782659 1.0536634574561770 239 239 239
0.1071821089269106 -0.0134997509270039 1.0644960699083135 239 239 239
0.0917629499862168 -0.0042286532215825 1.0500359289305989 159 159 159
0.0933452961934720 0.0125330135681958 1.0535069240982329 186 186 186
0.0943815466733215 0.0126792776297945 1.0538966477228282 136 136 136
0.0951756547334681 0.0294310253180839 1.0610172256374719 190 190 190
0.0975903039738206 -0.0128695680606003 1.0554684205268818 235 235 235
0.0840976304208691 0.0289139669856192 1.0534406581078599 219 219 219
0.1074322172326230 -0.0119522791644317 1.0645055869734488 225 225 225
0.0805325774563479 -0.0106394411959814 1.0488140222540610 221 221 221
0.1024717917446582 -0.0123898278101082 1.0590548478710131 221 221 221
0.0957400121483473 0.0240783595731587 1.0577732084290947 208 208 208
0.0824861976172024 -0.0094393298541875 1.0494888916841811 243 243 243
0.1045297482456310 -0.0064426865704213 1.0597760177811339 225 225 225
0.1037411263745960 0.0153933798589620 1.0622628837795498 190 190 190
0.0806466907069860 -0.0050425481184865 1.0485916823776094 240 240 240
0.1093908220215080 -0.0053800855904441 1.0626375810346285 218 218 218
0.0939604885921687 -0.0093341028881516 1.0527506445664445 19 19 19
0.0854533888658123 -0.0091172381880163 1.0514893770770410 243 243 243
0.0808212248722530 -0.0071378482330447 1.0490407492462328 243 243 243
0.0994677315278199 0.0028962861001330 1.0555411480861645 224 224 224
0.1099387048979964 -0.0017998819450290 1.0637188769767050 221 221 221
0.0812227400833053 0.0061859325042458 1.0486684774479864 228 228 228
0.0990290863385684 0.0040182774156504 1.0557327290261522 212 212 212
0.0952547790222496 -0.0029571541940211 1.0537639424122811 164 164 164
0.0930125139662515 0.0303672701121182 1.0586404323501597 216 216 216
0.1028971943177017 -0.0049374320731795 1.0582983571727116 234 234 234
0.0893297381185106 -0.0025368108916852 1.0522473909899868 173 173 173
0.1057238457589433 0.0051293485943627 1.0619084081440049 182 182 182
0.1026063817515451 0.0053615007013557 1.0589192773553433 216 216 216
0.1074887812259832 -0.0009186760371204 1.0616156075484375 191 191 191
0.0952721327034107 0.0324701265682776 1.0643495049485225 221 221 221
0.0960695065465760 0.0057117197578386 1.0545605335189125 234 234 234
0.0995992236327658 0.0060548389738986 1.0591631707133720 200 200 200
0.1072581291657647 0.0065268893446114 1.0627667880890501 218 218 218
0.0826042329260677 -0.0005204625750306 1.0482791410914056 190 190 190
0.1083587060829619 -0.0006836798978016 1.0622738147005419 202 202 202
0.0956050763405028 0.0064542114103364 1.0549429929622340 154 154 154
0.0962094853145191 -0.0004182525161498 1.0538955395334639 167 167 167
0.0949894439101984 -0.0003016755237184 1.0538450058003950 181 181 181
0.1000005846474261 0.0070232383481684 1.0562443086252455 185 185 185
0.0918726373558892 -0.0002542152769900 1.0520485648433309 238 238 238
0.0804707805645060 0.0090573922795721 1.0485169629653355 246 246 246
0.0867191319359189 0.0067895094181589 1.0509998157135410 240 240 240
0.0972020734029000 0.0003867009034142 1.0547231885894155 225 225 225
0.0822297546520385 -0.0005419441678293 1.0489275786875001 174 174 174
0.0840351479709939 0.0001082210324107 1.0491405464081935 28 28 28
0.1049121997102671 0.0028087376917063 1.0602463786798657 240 240 240
0.0828571092565606 -0.0245112916650541 1.0529243366908438 221 221 221
0.1031722571064658 0.0009209635271099 1.0569966566621387 189 189 189
0.0881030556392828 0.0024554742454931 1.0503446387087845 176 176 176
0.1099210269170597 0.0032688808699852 1.0646422636836534 7 7 7
0.0821475065916471 0.0002513943610678 1.0485254333454896 220 220 220
0.1019106105984088 -0.0236273200423330 1.0618036861509381 221 221 221
0.1077125542252948 0.0019477749176567 1.0628803809615579 182 182 182
0.1052368217708013 0.0019039311773778 1.0603628063351669 220 220 220
0.0810697262890651 0.0108646873278404 1.0487468050629374 255 255 255
0.0909953986019587 0.0088543719688650 1.0552364840900992 164 164 164
0.0944355083842811 0.0095607002152083 1.0532199099613266 204 204 204
0.1089571220660557 0.0042360869376760 1.0624077653445374 218 218 218
0.1052596695464335 -0.0221505214779354 1.0683928731487153 169 169 169
0.0919578938313838 0.0102297403235236 1.0511497768140996 159 159 159
0.0998627951785221 -0.0220954101420620 1.0597761594509283 145 145 145
0.1038837778480336 0.0112647172114756 1.0592084643147091 212 212 212
0.1037947572033369 -0.0212598183378899 1.0657164185115158 223 223 223
0.0905782569369433 0.0050839923950914 1.0517058871380829 255 255 255
0.0885159591631735 0.0123414967188137 1.0515412514218092 225 225 225
0.0806214197497586 0.0121095674466464 1.0480764374689395 210 210 210
0.0877939629999348 0.0057176070055018 1.0511893639554326 204 204 204
0.0864320689088537 -0.0188071049510251 1.0524250282234828 236 236 236
0.0966540850132255 -0.0186106471446543 1.0569859337950731 255 255 255
0.0996556574699791 -0.0183194990859289 1.0597370319379933 237 237 237
0.0827764038447419 -0.0185437910436726 1.0515684003971932 231 231 231
0.0820107247269124 -0.0194300330913512 1.0503492051091949 255 255 255
0.0964759734109218 0.0146731283202142 1.0554710746910714 239 239 239
0.0937849247447139 0.0149666615394776 1.0544031292338598 214 214 214
0.1039729499045665 0.0155481809108896 1.0606817784201339 160 160 160
0.0835639213605646 0.0104235432238597 1.0503414074872366 182 182 182
0.1001682816695858 -0.0174349146952389 1.0592545946277134 223 223 223
0.0821974496974709 0.0140162046967938 1.0499716458842059 177 177 177
0.0824092010076759 -0.0033219361225967 1.0494317654027385 240 240 240
0.1057889345916004 0.0158736094174094 1.0650191097569508 235 235 235
0.0870421572118535 0.0146327897893421 1.0510210810571035 181 181 181
0.0856803447144534 -0.0171138285415887 1.0547165397290847 173 173 173
0.0913446540754927 0.0153041184821653 1.0530513548020473 177 177 177
0.0953794211637931 0.0094393466379687 1.0540341919437024 189 189 189
0.0863767161104331 -0.0187892205195537 1.0517885883683822 236 236 236
0.1044561535109648 0.0162759335385641 1.0621938591881739 168 168 168
0.0867119869957074 0.0138655195188046 1.0515699555037930 181 181 181
0.0870919382350333 0.0157310020274089 1.0518291455546582 226 226 226
0.0825672392803617 0.0203646853093565 1.0508045835463868 226 226 226
0.1045296332649359 -0.0135628475805077 1.0612964661199620 206 206 206
0.0838748361386147 0.0207114544081692 1.0505682881597729 200 200 200
0.0975009932973415 0.0183858020249994 1.0569688793419096 156 156 156
0.0844622133472712 -0.0078229005010151 1.0501817411322569 146 146 146
0.1057646324819877 -0.0100689048115578 1.0600927693900026 10 10 10
0.0898654825635349 0.0237630693876139 1.0547478857458874 148 148 148
0.1028202859206276 -0.0100312138781792 1.0589213196061056 229 229 229
0.0910791395551812 0.0341570166554454 1.0618904971026244 199 199 199
0.0930391000686840 0.0224936423118071 1.0570759622412058 175 175 175
0.0938525303555098 0.0271355069119694 1.0573030174773677 247 247 247
0.0817858264220516 0.0083928287822338 1.0493880378779279 186 186 186
0.0867064104198285 0.0270274810473178 1.0537616924512827 168 168 168
0.0818680633858936 0.0002813332434704 1.0489030294459611 224 224 224
0.0819922765305870 -0.0063770004853019 1.0492347987771722 247 247 247
0.0972437830816633 0.0293400126167719 1.0624599042490004 77 77 77
0.0913522167663521 -0.0199112951602986 1.0543260278462221 191 191 191
0.0801624166658610 0.0217220322949141 1.0502206117095489 249 249 249
0.0923125761956672 0.0304124793229273 1.0585245926887199 103 103 103
0.0899495714989143 -0.0195406671875549 1.0536125747054035 235 235 235
0.0958220711516415 -0.0230596944571590 1.0623570110903138 182 182 182
0.0852619302687003 0.0275340677529691 1.0527373122856023 173 173 173
0.0898079928101579 0.0040584543679345 1.0514388623743156 206 206 206
0.0832453945653249 0.0017610311567855 1.0486280991282251 197 197 197
0.0995602894479014 -0.0227165915732867 1.0609088277124927 242 242 242
0.0808095154590251 0.0248580160327796 1.0507872839708030 170 170 170
0.1062031223221738 -0.0216863901011266 1.0672057318105086 6 6 6
0.0856476757926191 -0.0133627629416066 1.0505685966438287 240 240 240
0.0941050559537339 0.0041520148618984 1.0531757835758375 236 236 236
0.0987934874076325 0.0280067117023486 1.0645159843012841 168 168 168
0.0823710815794713 -0.0155543346851859 1.0500005575429003 188 188 188
0.1066466637434225 -0.0196437960020196 1.0681206947202431 5 5 5
0.0826954722180815 -0.0148731072162064 1.0499756068113484 246 246 246
0.0992700472354147 -0.0206399489602243 1.0601998014271352 236 236 236
0.0885751496798583 0.0276305448370038 1.0555297196060374 172 172 172
0.0992707828839369 -0.0206400746662979 1.0602180295388086 236 236 236
0.0915480335030120 0.0299496463873378 1.0573580015225301 255 255 255
0.1066834925797481 0.0027543375971503 1.0644044833175581 208 208 208
0.0902000210768228 0.0156270066368495 1.0530518188358549 200 200 200
0.1017703669298718 -0.0203125434505941 1.0618979097824433 188 188 188
0.0915472113463218 0.0299483927544686 1.0573435027016305 255 255 255
0.0991114858168213 0.0072136059469519 1.0558800023215622 247 247 247
0.0931222123849862 0.0234262528172555 1.0546514368121189 180 180 180
0.0936596091234025 0.0074636381581971 1.0524350697151588 217 217 217
0.0815652419346630 0.0310384304231258 1.0526365298800682 206 206 206
0.1022963119912549 -0.0160613753511648 1.0598259200776392 158 158 158
0.0903930582491909 -0.0096189130048430 1.0522685905298959 239 239 239
0.0980882999939345 -0.0156833106960226 1.0573910312671797 179 179 179
0.0835626032718220 0.0293378297818871 1.0556033858783884 180 180 180
0.0997562622648110 -0.0160524609102320 1.0572090125628752 225 225 225
0.0814521052394480 0.0234501661270200 1.0501229348298089 157 157 157
0.0816306191811716 -0.0011027084368629 1.0491051773310927 207 207 207
0.0852078485275885 -0.0132181314374890 1.0519513133501994 232 232 232
0.0825629619717347 -0.0086179605470448 1.0492847394651936 244 244 244
0.0950242555208532 0.0253934705096165 1.0576145305246134 199 199 199
0.0938296150894950 0.0135658708944592 1.0532429967684596 164 164 164
0.1063474828650841 -0.0142986087599091 1.0652156764452094 190 190 190
0.0823147047918316 0.0302700966290141 1.0527614331995787 148 148 148
0.0877770345139359 -0.0095635252726487 1.0500107036086177 172 172 172
0.0834259087150301 -0.0061333538204424 1.0499490896601076 153 153 153
0.1033469808866011 -0.0082812784662687 1.0596619577347892 207 207 207
0.1004353614167904 -0.0009932359080143 1.0552863772812000 190 190 190
0.1047672504593086 -0.0061796218954116 1.0593767648752548 122 122 122
0.0819782006368572 0.0181719668895021 1.0494575470327170 186 186 186
0.1002709831077000 0.0025330118856631 1.0565398221692113 224 224 224
0.0930977607006065 0.0153982499639969 1.0548523843832609 189 189 189
0.0832939940320848 -0.0036089508198617 1.0494168219863080 183 183 183
0.0819618091535639 -0.0046274514024640 1.0494525713335541 241 241 241
0.1071600233531987 0.0089689451035443 1.0614278733452995 231 231 231
0.0971702581822378 0.0155419672495875 1.0553157967901869 215 215 215
0.0862290136071980 0.0252197463132605 1.0532421191036629 177 177 177
0.0966696039193703 -0.0051929393239617 1.0557930001952982 178 178 178
0.0828621522391126 0.0150355996668594 1.0493238049315705 179 179 179
0.0910626899584857 0.0258705546477679 1.0554992195160295 155 155 155
0.1057412920823998 -0.0189072239442675 1.0657720689250287 207 207 207
0.1027716301444845 0.0001121862968135 1.0582297642452310 216 216 216
0.1072876599692539 -0.0181038360759330 1.0666454322153303 4 4 4
0.0850825684274641 0.0267253227730846 1.0534697401191275 187 187 187
0.1048169997861281 -0.0180006378946100 1.0658717819577590 174 174 174
0.0821746735552897 -0.0052695620588755 1.0490528581760250 220 220 220
0.1069922969423597 0.0010999303927418 1.0611386718409501 204 204 204
0.1065989885579263 0.0143676684770196 1.0646929103269656 6 6 6
0.1018262783116371 -0.0058072972292614 1.0575933649871418 239 239 239
0.0819011303246180 0.0288451071273488 1.0524982113098789 183 183 183
0.0806084043953476 -0.0025077683584420 1.0489694742741964 124 124 124
0.0970555788247304 0.0030277578087646 1.0551790551485241 217 217 217
0.1000073919087118 0.0147596840530845 1.0580005757804076 139 139 139
0.0800574335670841 0.0157980810385659 1.0491684093007456 181 181 181
0.1075519566252420 0.0106040921863474 1.0649212012050184 230 230 230
0.1026619590858712 -0.0055097235443103 1.0594228781864834 209 209 209
0.0916755168915942 0.0112781339518015 1.0595518243093791 162 162 162
0.0832327887450912 0.0137784651565690 1.0502925278128024 187 187 187
0.0796925816090071 0.0171367118745144 1.0484862879203452 181 181 181
0.0949715706983961 -0.0153261491003805 1.0564599431762334 188 188 188
0.1066767660609261 0.0120667527383556 1.0632400310157692 188 188 188
0.0845562570692857 0.0148043616844778 1.0508975839490486 197 197 197
0.1051082726737291 0.0165592967527904 1.0647088768384072 216 216 216
0.0839044547576561 -0.0070432523003744 1.0498920606530024 166 166 166
0.1094366090995085 -0.0103216894243387 1.0655345245392911 192 192 192
0.0825082418139631 0.0193885854511010 1.0508199011839907 229 229 229
0.1093011418125122 -0.0145368170378643 1.0688671149375406 6 6 6
0.0831865983792960 -0.0035908244158466 1.0481412803046146 183 183 183
0.0862824681245292 0.0205930676560823 1.0520747344016064 223 223 223
0.1031790954223788 0.0181144750376991 1.0624699827697570 179 179 179
0.0810639291141876 0.0015185136966932 1.0485146931801457 201 201 201
0.1013192053129247 -0.0049110129757249 1.0574708633712109 247 247 247
0.0820080030455271 0.0032176819156799 1.0488248479588633 253 253 253
0.0878444965931810 0.0194892793511838 1.0535741724627703 180 180 180
0.1049928117310183 -0.0017405725566112 1.0588342714976564 216 216 216
0.0888510234757795 0.0178456313702575 1.0522213620802567 190 190 190
0.1095261982242856 -0.0132357813577581 1.0671013772899569 7 7 7
0.1066272067531269 -0.0024027617279264 1.0606915480229044 244 244 244
0.0840159102398979 0.0334991945334788 1.0541756798488386 220 220 220
0.0914214622861461 0.0267531342263051 1.0559526960654586 200 200 200
0.0938365777272219 0.0135675693763093 1.0533235054844803 164 164 164
0.0896520184859039 0.0173041285605419 1.0528325320205620 195 195 195
0.0892592321904922 -0.0132628298744368 1.0523865234768239 210 210 210
0.0801514485065418 0.0166918201429854 1.0489755908113527 180 180 180
0.1064275674553735 -0.0130181782184683 1.0640121464710990 228 228 228
0.0805759814461916 -0.0043112661226397 1.0487918622750749 241 241 241
0.1107482838217970 -0.0081024698523818 1.0670715954734533 8 8 8
0.0941873370332383 -0.0066512032252834 1.0553622363547241 216 216 216
0.0983419051387543 0.0289090857041147 1.0634282211798780 6 6 6
0.1015991823736863 -0.0241036674992293 1.0641701120209497 220 220 220
0.0948015885930692 0.0331028852088945 1.0657437888187058 214 214 214
0.0964445408907438 0.0138517579006362 1.0550735439141197 161 161 161
0.0830577830759754 0.0171813517177790 1.0504559696333207 184 184 184
0.1012682677668553 -0.0118764543692356 1.0583669356561840 202 202 202
0.0816938086067682 0.0195116659079708 1.0502816366513652 215 215 215
0.1020249192950839 0.0136758105482990 1.0582569746226378 227 227 227
0.1020395348495082 -0.0082049883558568 1.0581674160650318 233 233 233
0.1041145802381869 0.0183429868702336 1.0579933514694304 8 8 8
0.0954809911905953 0.0304843246004754 1.0610649312279521 170 170 170
0.0810413937746514 0.0302429337386054 1.0528088677041951 185 185 185
0.0905338080189618 0.0297510572773913 1.0572251389277989 157 157 157
0.0844026724556887 0.0209511312566675 1.0516122706026125 190 190 190
0.0900183950352691 -0.0117130289355494 1.0499520898521031 255 255 255
0.1016107604197037 0.0025141883667834 1.0571146570209811 231 231 231
0.1104081800602229 -0.0071896798563938 1.0675167790561073 200 200 200
0.0827257719286705 -0.0123779828735964 1.0502685821749793 241 241 241
0.0908136476918594 0.0000826712858720 1.0523075484986022 222 222 222
0.0845922955242710 0.0008763691766976 1.0498563083890808 243 243 243
0.0814352308200939 0.0250583397722398 1.0513921386501293 205 205 205
0.0950538979856199 0.0195473218863051 1.0580784767876259 207 207 207
0.1055230913047921 0.0036920154559466 1.0595407230674045 220 220 220
0.1037726212615800 0.0172303653003422 1.0637906025400197 255 255 255
0.0944710294467896 0.0305010732935275 1.0621848649223611 151 151 151
0.1060614509765854 -0.0117033940624774 1.0616010446500064 250 250 250
0.0847324875995783 -0.0113120654885667 1.0499056955657013 238 238 238
0.1028310303297339 -0.0122851087821711 1.0583082915621886 12 12 12
0.1050859756068319 0.0024905575618509 1.0598624584023144 231 231 231
0.1007884351163074 -0.0238969415585547 1.0621644364527290 223 223 223
0.1023065915490490 -0.0231900112087423 1.0629954497023411 121 121 121
0.0881926553054882 -0.0161838491886469 1.0522710900008208 241 241 241
0.0944501559050007 -0.0148752137399588 1.0598615966341296 166 166 166
0.0955826179856215 0.0209581049719276 1.0531459749947083 178 178 178
0.0817697951625027 -0.0020166631046785 1.0482725782869426 209 209 209
0.1015629617179297 -0.0231598131663273 1.0627353220279327 228 228 228
0.1017531423361163 0.0206610733995261 1.0627725317866124 204 204 204
0.1034476334595933 0.0144939503100369 1.0607749853019581 176 176 176
0.0846159909344814 0.0193931674286003 1.0506853246483188 197 197 197
0.1034282626395944 -0.0102511163552023 1.0588227519967541 233 233 233
0.0971985324488714 0.0171328528714389 1.0558377760294031 233 233 233
0.0863751653002753 0.0076293611596554 1.0517458679556251 215 215 215
0.0966168888653349 0.0226024350572065 1.0587216194333040 212 212 212
0.0826433444076248 0.0291314275707469 1.0531436358691555 185 185 185
0.1026756165934516 -0.0071114162146724 1.0587432449790626 221 221 221
0.0812756865821742 0.0036047026010775 1.0484523535723760 234 234 234
0.1072556122190596 -0.0031420658191934 1.0611746110211939 184 184 184
0.0980229793072311 0.0206626646303584 1.0570385816476977 179 179 179
0.1076232132408612 -0.0150756208836097 1.0680361489237302 188 188 188
0.0810794080999679 -0.0080859905868943 1.0495494201182933 159 159 159
0.1021881049188354 -0.0247201919035698 1.0645527792393918 198 198 198
0.1115945938883560 -0.0029029537585691 1.0665904770761001 5 5 5
0.0871514128488005 0.0199410902707176 1.0523598553361988 170 170 170
0.0907626399542546 -0.0144529847114762 1.0535314614030469 184 184 184
0.1023931996605827 0.0018718296666121 1.0566333551898668 236 236 236
0.0893705531144142 0.0018688038603058 1.0519311508361087 152 152 152
0.1006653271701904 0.0238595317692680 1.0639560121775349 189 189 189
0.1023172265960225 0.0153367165158730 1.0594560125452241 249 249 249
0.0879059177480737 -0.0039494196258211 1.0521820733430509 183 183 183
0.0851523074033137 0.0312290326706197 1.0554266043385672 196 196 196
0.0963843372220546 -0.0070519220113608 1.0543609186188263 232 232 232
0.0986303556909922 0.0041076914039745 1.0561685823412952 182 182 182
0.1043175412261063 -0.0227712993187675 1.0676413132000711 215 215 215
0.0956544916508808 0.0160964801704624 1.0499189014991768 186 186 186
0.0850275637253738 0.0182109223834076 1.0516158069507333 195 195 195
0.0987310586410322 -0.0149495051833277 1.0580715583035507 242 242 242
0.1025319700536924 -0.0088839555570257 1.0588134118075847 231 231 231
0.1106525791560256 -0.0094378071974704 1.0673042985623284 7 7 7
0.0995683899947338 0.0150079622764571 1.0569084598935041 126 126 126
0.0846215470603904 0.0049426682898240 1.0500392866628265 173 173 173
0.1028682365256877 -0.0036424410843506 1.0567164752465945 171 171 171
0.0978559995840623 -0.0237410534846423 1.0605615497978003 236 236 236
0.1038586197713086 0.0083578061461989 1.0564113849085821 123 123 123
0.1068108426310000 -0.0118389123435318 1.0629119893262728 172 172 172
0.0883073281210818 -0.0210934347822161 1.0528614917453036 187 187 187
0.0938135355999487 0.0298506930923820 1.0599656839368630 184 184 184
0.0885430579392807 0.0235582190598092 1.0537137222557467 169 169 169
0.1013244819600923 0.0161074238442790 1.0585358940732466 225 225 225
0.1108714380976362 -0.0019696695049102 1.0637214001221338 167 167 167
0.0890233763258902 0.0165576162609939 1.0526292769433281 191 191 191
0.1073163675680524 -0.0149202264702612 1.0643653327778093 186 186 186
0.0883790957868004 0.0168187273799667 1.0523189924179226 220 220 220
0.0975367196949092 -0.0137546784577489 1.0557593098411751 181 181 181
0.1003701414554263 -0.0049528520288178 1.0565318533537296 241 241 241
0.1013413887144496 -0.0247563394131299 1.0640738690493612 239 239 239
0.0954610195785014 0.0236523170232993 1.0564659447282938 200 200 200
0.1078632202562135 -0.0114429679905504 1.0643689743395692 237 237 237
0.0836250756826975 -0.0172963229821016 1.0507779722614288 211 211 211
0.1063054135415903 -0.0081065820217307 1.0613927504379856 153 153 153
0.0869214578452590 0.0330032596825035 1.0573108386009151 225 225 225
0.0890123805565154 0.0218864334285493 1.0519772329919876 223 223 223
0.0814960753254090 -0.0025939248018852 1.0490885412409190 238 238 238
0.1023141354162168 -0.0028957274327491 1.0566803098153894 167 167 167
0.0911659601871351 0.0045821155424926 1.0528038188907032 179 179 179
0.0954114399757756 0.0282461795546715 1.0599854375684135 178 178 178
-0.0099057288031757 -0.0266806487453325 -0.0449218253060352 0 255 0
-0.0074666947846283 -0.0177733371882092 -0.0453211438650322 0 255 0
-0.0075903677274425 -0.0113652940681545 -0.0429476661933734 0 255 0
-0.0079010338281172 -0.0008715907301573 -0.0430911435614680 0 255 0
-0.0078309453894673 0.0064181030148218 -0.0446425590441425 0 255 0
-0.0075109253742510 0.0123681993822298 -0.0441202856050915 0 255 0
-0.0071705221180057 0.0194095074053671 -0.0410762381728214 0 255 0
