ply
format ascii 1.0
element vertex 648
property double x
property double y
property double z
property uchar red
property uchar green
property uchar blue
end_header
0.0800345175995918 0.0047281036868617 1.0469388122566807 235 235 235
0.0809215312107164 -0.0085749922078222 1.0477314061951994 246 246 246
0.0819583688091830 -0.0178900707376034 1.0486137765942871 224 224 224
0.0822658068198618 -0.0118801099427711 1.0479095041131747 184 184 184
0.0816183819474556 -0.0107379005197068 1.0477749032218873 233 233 233
0.0807438206044591 -0.0055694855101705 1.0475640680813953 207 207 207
0.0800486125047960 0.0288367505722267 1.0508131027188827 235 235 235
0.0802080776578856 -0.0045045264282323 1.0472889086989767 241 241 241
0.0812441621927671 -0.0037715010961342 1.0477094604004780 230 230 230
0.0820271588461867 -0.0021499385850731 1.0475219901765320 219 219 219
0.0811698005698717 0.0120696305335560 1.0479299839901286 221 221 221
0.0804743916045879 -0.0033528202426458 1.0473187385052249 228 228 228
0.0807257948400055 -0.0064467065886557 1.0473784006572742 255 255 255
0.0806073467123008 -0.0059642149805860 1.0474555936566419 170 170 170
0.0809334854258765 -0.0077119728606982 1.0479078274296441 148 148 148
0.0812350136782306 0.0220525323668327 1.0495234652673040 202 202 202
0.0826721784877665 0.0030128630085883 1.0479906073693761 203 203 203
0.0868190347129469 -0.0244193042882695 1.0525251271279923 223 223 223
0.0824845357010700 0.0170825380443134 1.0483166329483615 224 224 224
0.0835331730455645 0.0325472958174646 1.0543590371559743 184 184 184
0.0873500144592463 0.0032491662041392 1.0497424782765148 241 241 241
0.0909001824102434 0.0331613968238781 1.0598014288799480 153 153 153
0.0833581960246945 -0.0240135073694057 1.0505863394751136 245 245 245
0.0906348352215385 -0.0235151074419542 1.0541866879739399 255 255 255
0.0875018224894962 0.0181557943892088 1.0512519605642177 162 162 162
0.0890616362756206 -0.0232707214779960 1.0534683865420147 255 255 255
0.0828365603300475 -0.0054715540231255 1.0479919178564785 232 232 232
0.0876578696388349 0.0185056279174967 1.0513655590246207 234 234 234
0.0829883279262840 0.0045117291386619 1.0481358492795010 200 200 200
0.0821325225130244 0.0045441312788490 1.0479697222654862 239 239 239
0.0846987685706414 0.0047198116316586 1.0490874067422973 173 173 173
0.0823111010742149 -0.0052718041575766 1.0480600757366232 146 146 146
0.0839830200878554 -0.0097057412407457 1.0487512552065572 241 241 241
0.0899896400340060 0.0052328029687210 1.0512985786476809 172 172 172
0.0909653031439844 -0.0221897543580626 1.0544083949314833 239 239 239
0.0895680192713231 -0.0221914051763348 1.0534488800538886 221 221 221
0.0886570936796352 -0.0221037702105210 1.0528871998265141 247 247 247
0.0924044363639067 -0.0230112630952937 1.0551947589148902 187 187 187
0.0830576684375771 0.0052207546193054 1.0481309416578428 225 225 225
0.0857961837053630 0.0197895445748674 1.0508069476262512 171 171 171
0.0892308928666803 0.0199350110387065 1.0527470459243675 206 206 206
0.0926806931868801 0.0061688404209698 1.0519711438939610 238 238 238
0.0933587296752671 -0.0216456892173021 1.0549759361330129 238 238 238
0.0915560861296107 -0.0216714200278554 1.0540780042792843 245 245 245
0.0927012119589136 -0.0225983077165514 1.0550203512229743 227 227 227
0.0828639214289938 -0.0094401959847212 1.0486276751985359 160 160 160
0.0931364025731620 -0.0223902648045877 1.0552630371736511 139 139 139
0.0868104450761314 0.0203748811040249 1.0507856200630117 215 215 215
0.0866738805562927 -0.0213516860474059 1.0517271644764834 128 128 128
0.0911425705870511 -0.0089915052707170 1.0516049033196404 228 228 228
0.0830588281704447 0.0204865299197376 1.0504271090706829 154 154 154
0.0856278282971876 -0.0211624633137137 1.0509301746309547 254 254 254
0.0871320834330944 -0.0215065908909423 1.0519910071773761 218 218 218
0.0852936749574120 -0.0208043928434235 1.0507521947924929 176 176 176
0.0867427992714600 0.0073918094545441 1.0498774515976144 149 149 149
0.0846498905078837 -0.0209081318996982 1.0504396826745754 246 246 246
0.0927245663085524 -0.0202182833514060 1.0544576841884241 234 234 234
0.0915493996876652 -0.0206741091064328 1.0537142670228989 253 253 253
0.0879175307575054 -0.0207148734118726 1.0518459762655974 160 160 160
0.0881627222185273 -0.0203202540367825 1.0519302008760849 234 234 234
0.0872616584987729 0.0079657681148454 1.0498426542784314 177 177 177
0.0901632583704994 -0.0206244344462189 1.0534633315178314 154 154 154
0.0855283271488364 0.0081927364828260 1.0496848030505925 174 174 174
0.0868881080248669 0.0221330776159935 1.0515900266266074 217 217 217
0.0899059859839324 0.0084888904553725 1.0509877853870040 206 206 206
0.0934334874573630 -0.0198074539849722 1.0548243540111188 168 168 168
0.0905914776399746 -0.0193295822349577 1.0531398875014626 217 217 217
0.0913637688093938 0.0226670328764520 1.0541170810940084 162 162 162
0.0834036676150272 -0.0191897571402070 1.0492453492248668 140 140 140
0.0838300353090869 -0.0192398583669983 1.0502462110818369 229 229 229
0.0864375519074270 -0.0189349378389253 1.0506357770029759 147 147 147
0.0820980534452890 0.0229950846853256 1.0501589800918525 200 200 200
0.0864373476693615 0.0091678013425667 1.0500259755948822 214 214 214
0.0872533514830975 0.0236583879438611 1.0524280294562542 210 210 210
0.0917975194633802 0.0096041693806165 1.0521168842918747 235 235 235
0.0882511035605946 -0.0173970906617246 1.0514980519773349 231 231 231
0.0827405530960893 0.0248187019151970 1.0509075413327271 250 250 250
0.0876527664060369 -0.0171695965374622 1.0508246641951673 255 255 255
0.0850632116580594 0.0240554291243500 1.0515107016274321 239 239 239
0.0855219494452369 -0.0168921330824144 1.0497933029450013 235 235 235
0.0857016174551969 -0.0179126117571254 1.0501928854335771 244 244 244
0.0825226673180978 -0.0081264537288550 1.0481807951798272 255 255 255
0.0853974983649770 -0.0080172190265452 1.0491033770215894 237 237 237
0.0859847664385178 -0.0165330664608216 1.0502678905329985 137 137 137
0.0889164085664505 -0.0044413061029649 1.0506693713073016 192 192 192
0.0883455316877876 0.0108338369160785 1.0514048633351680 205 205 205
0.0885368906137717 0.0110307460201475 1.0509763232420244 158 158 158
0.0860752509546323 -0.0170588156110637 1.0503884440812941 236 236 236
0.0878782627290266 -0.0154462922422097 1.0506156794974908 237 237 237
0.0815996322095752 0.0247481273475815 1.0502736389405407 188 188 188
0.0884672224349968 0.0117507152881042 1.0501787989613092 117 117 117
0.0888895988638363 0.0117345225221762 1.0507089034694461 192 192 192
0.0855717818818379 0.0255855594089885 1.0526913993270235 177 177 177
0.0871384467660837 0.0254345403999632 1.0528474233709975 179 179 179
0.0841427522676569 0.0122386803627503 1.0492999818905988 139 139 139
0.0898986342909741 -0.0140992292543572 1.0516328799617547 176 176 176
0.0831356611677677 -0.0155962587224167 1.0487432758321764 225 225 225
0.0917863194219835 -0.0031549125043300 1.0517703246874446 189 189 189
0.0869076049266538 -0.0153651697728437 1.0503976575504883 220 220 220
0.0829652836642925 -0.0141418952384153 1.0485279056739807 214 214 214
0.0894663286828553 -0.0137754816053107 1.0513025778644771 174 174 174
0.0847597357682891 -0.0148084497624568 1.0493317209555066 253 253 253
0.0865974568470474 -0.0137978974736036 1.0502249437046620 221 221 221
0.0797971205258481 0.0131828099105721 1.0477720480197974 230 230 230
0.0872181947612415 -0.0073180065478877 1.0504277904046915 220 220 220
0.0868619068579278 -0.0130727617678574 1.0500696494923349 248 248 248
0.0895575864668843 -0.0026896331097108 1.0505397006592228 171 171 171
0.0897493972358554 -0.0129420228968903 1.0507637503387623 164 164 164
0.0826128864077763 -0.0143991577452443 1.0481542551973684 138 138 138
0.0832088272121154 -0.0129914913300967 1.0484174057011952 212 212 212
0.0898700231236142 -0.0135710251802289 1.0509494649637581 229 229 229
0.0833566861177091 -0.0030848534796520 1.0482412652683462 229 229 229
0.0862976168697650 0.0145729769715718 1.0501820197695451 215 215 215
0.0882725827689249 -0.0071047152607700 1.0503866240705391 171 171 171
0.0895469619030396 0.0148728617057027 1.0514275837446803 193 193 193
0.0836113569151409 -0.0121793919414605 1.0485211638629199 210 210 210
0.0895856475413349 -0.0125576210047634 1.0513074545120973 255 255 255
0.0861582426022466 -0.0125734800150754 1.0497809300902292 236 236 236
0.0879271923607448 -0.0118484640270475 1.0502557607756737 164 164 164
0.0902720677746565 -0.0116447128761552 1.0512330512555901 171 171 171
0.0873104078889153 0.0153313358847681 1.0506874959088135 205 205 205
0.0888661768298257 -0.0115026757312102 1.0508271660387980 241 241 241
0.0877437669215603 -0.0121069260672662 1.0505288798540897 219 219 219
0.0836381311237430 -0.0115084698975202 1.0491701830249689 223 223 223
0.0850680713978868 -0.0067984891130300 1.0490073474679178 255 255 255
0.0874208328175480 -0.0107804239978568 1.0495592455794445 213 213 213
0.0855713349893598 -0.0116088434796696 1.0492635408424049 228 228 228
0.0917148789310956 -0.0105022472126023 1.0512090416583859 228 228 228
0.0856104137986952 -0.0112261130867964 1.0489054003025164 176 176 176
0.0895465210509685 -0.0110584446513667 1.0511397437612522 238 238 238
0.0931641839154973 -0.0109635372771842 1.0529364359280038 189 189 189
0.0880835276445499 -0.0101200880943318 1.0504449909881106 200 200 200
0.0844930982205272 -0.0109483486803907 1.0487478838324316 171 171 171
0.0834070874271138 -0.0017104880049097 1.0483196572980882 229 229 229
0.0854796793129423 -0.0108634227805770 1.0492160774505350 251 251 251
0.0887185943429532 -0.0091797607513936 1.0507714632905307 255 255 255
0.0801874105336896 -0.0107933947651616 1.0473116552233994 221 221 221
0.0890617839121028 0.0267116491864583 1.0547513749984716 206 206 206
0.0830215294978192 -0.0107484234090413 1.0485322491090325 251 251 251
0.0841786971376399 -0.0089573272433150 1.0492281289980641 255 255 255
0.0918183781783088 -0.0082724679020405 1.0514507869843146 187 187 187
0.0827659702154772 -0.0085521740681365 1.0479200234807071 168 168 168
0.0867899098729165 -0.0080229321030707 1.0497278710900972 183 183 183
0.0848914964171752 -0.0079115769079538 1.0490669608511547 238 238 238
0.0813990096227001 0.0281676301196219 1.0498116117977796 186 186 186
0.0905752942293287 0.0294978287430762 1.0566228147430405 236 236 236
0.0867324148145318 -0.0000853090918220 1.0492917936824582 233 233 233
0.0913906833583314 0.0318902417471439 1.0588001514735816 192 192 192
0.0886315119223687 -0.0050668448096493 1.0506298132897027 190 190 190
0.0850317876100991 -0.0045710669512453 1.0482175073801647 242 242 242
0.0834173027136726 -0.0057040359393885 1.0481179538933134 255 255 255
0.0910705437698377 -0.0054564432716173 1.0506808867303512 185 185 185
0.0816913286342834 0.0307893682963001 1.0518606427356181 178 178 178
0.0811234759542777 0.0004966492848951 1.0474497414079582 221 221 221
0.0831181594537430 -0.0000373551954132 1.0481011157565268 238 238 238
0.0807744829327660 -0.0049954657941326 1.0474235750182956 210 210 210
0.0833603676075581 -0.0048906577038278 1.0484008026120326 212 212 212
0.0833563105767222 -0.0048902934594163 1.0483964214902350 212 212 212
0.0855349863983200 0.0016887624450464 1.0485386219794361 192 192 192
0.0815369369598921 0.0016821284607418 1.0471547312706493 154 154 154
0.0844616858165060 0.0018709732624729 1.0483225101724924 195 195 195
0.0839478490190379 -0.0041616569788378 1.0483246748378394 244 244 244
0.0925523642975403 -0.0037328038810550 1.0517229683422706 182 182 182
0.0857397240554546 -0.0036564229940196 1.0490816209410525 225 225 225
0.0891980493293711 -0.0035424129735567 1.0505224639706205 253 253 253
0.0844152469882760 -0.0030605410016697 1.0484257463897539 225 225 225
0.0823537009525258 -0.0029900932678075 1.0478618688032117 223 223 223
0.0851991123663847 -0.0028808425928259 1.0487437665553967 180 180 180
0.0877936136348019 -0.0024073155476236 1.0499148320689544 165 165 165
0.0913848232442830 -0.0240263679057211 1.0548397912853986 219 219 219
0.0879787741744419 0.0040204378291730 1.0496301742964771 255 255 255
0.0837376740089753 -0.0021945528429951 1.0482499686373756 231 231 231
0.0919349901883358 -0.0239066125526939 1.0546849541393941 175 175 175
0.0854661882603333 0.0048604048674221 1.0488870969176305 230 230 230
0.0817192857557899 -0.0238110840159142 1.0503509882616973 163 163 163
0.0848936411642858 0.0050624026417476 1.0487103365250650 230 230 230
0.0878528756759107 -0.0009782867402152 1.0498268148544889 239 239 239
0.0852238894313462 0.0063895641047383 1.0488303792913438 207 207 207
0.0883355001998086 -0.0006677211954848 1.0497377817206659 206 206 206
0.0828555333422711 -0.0007587497447479 1.0481377395995994 114 114 114
0.0914807838582305 -0.0004424051198186 1.0511952120864050 238 238 238
0.0865077225337616 -0.0005613036835990 1.0495424201918460 170 170 170
0.0841662366981795 0.0072974889341896 1.0491129939517694 161 161 161
0.0917731787540732 -0.0232140439904942 1.0545553621135644 211 211 211
0.0885321057425034 0.0049271054525157 1.0504045926281540 239 239 239
0.0906621388009829 0.0049786180571093 1.0507349702083584 194 194 194
0.0838490367920322 -0.0005014707894449 1.0485279003267356 192 192 192
0.0826125745073714 0.0077559961068632 1.0480209249903902 223 223 223
0.0860232072903356 0.0083331386462182 1.0493361291951904 228 228 228
0.0856785464714808 -0.0001516728010080 1.0489686721858760 248 248 248
0.0873702459217662 0.0083852788570581 1.0500274552879159 231 231 231
0.0856627850703959 0.0062367230215909 1.0493361415503888 232 232 232
0.0884237142852343 0.0089002696662571 1.0501458492854678 234 234 234
0.0857698807380559 0.0010164871623688 1.0490216432952821 197 197 197
0.0831661552414001 0.0099342972025493 1.0490106986463217 184 184 184
0.0829798499946968 0.0069277327752933 1.0484317296672461 187 187 187
0.0882249008802081 0.0104061074627667 1.0500511389949592 176 176 176
0.0819473231664370 0.0015918895255642 1.0475386073080815 229 229 229
0.0837310544637877 0.0017483676821162 1.0479739976117297 198 198 198
0.0866948044074210 -0.0224703888052052 1.0518973188759957 240 240 240
0.0825526263361529 0.0083236017779269 1.0478732812417393 180 180 180
0.0844359841058518 0.0083541229650187 1.0484546436961739 180 180 180
0.0844369397363845 0.0083565159657338 1.0484716811948309 180 180 180
0.0866733732530419 0.0084581620061472 1.0491735184663877 189 189 189
0.0887026603707510 -0.0207770124000793 1.0522329824479228 249 249 249
0.0801250426126523 0.0129570573665620 1.0480855847465647 167 167 167
0.0837429602559903 0.0107051771213739 1.0492236866271940 179 179 179
0.0918251650783840 -0.0121185699347152 1.0532033119977855 198 198 198
0.0832939360870067 -0.0086344398099968 1.0484441694523627 251 251 251
0.0842849027851662 0.0246433028085927 1.0515725015862265 143 143 143
0.0818613921513912 0.0264425984119573 1.0510375907484648 167 167 167
0.0890884581052160 0.0288358983331471 1.0556397822221759 225 225 225
0.0821388651284196 -0.0172154221364989 1.0487497155897356 169 169 169
0.0886577912041370 -0.0157532290239302 1.0510778109763859 187 187 187
0.0845410283000142 -0.0194595161846432 1.0500247122527691 233 233 233
0.0863753521839260 -0.0029349407370592 1.0491446871342112 173 173 173
0.0881666554137435 -0.0086144051641882 1.0513968579794670 189 189 189
0.0892128560294444 0.0182158038504301 1.0499948937772987 195 195 195
0.0826590325118724 0.0306611684243043 1.0524920179480102 216 216 216
0.0805900525207486 0.0138719157676741 1.0470783644013371 210 210 210
0.0881673933119205 -0.0110903743238840 1.0509126000205069 181 181 181
0.0832923470988408 0.0312974924880587 1.0537575413117091 204 204 204
0.0950566590810671 0.0194001087051601 1.0544169881407290 111 111 111
0.0903153609501335 0.0022147436647722 1.0507408308529060 221 221 221
0.0795306170439970 0.0315134041618618 1.0517559387521684 196 196 196
0.0879511134192889 0.0027136192216394 1.0491939902396503 252 252 252
0.0969033577200378 -0.0233040630009118 1.0584524712731305 231 231 231
0.0980047937552936 -0.0232422753306855 1.0581357569970908 189 189 189
0.0959090643425172 -0.0229350649347206 1.0557839527407920 206 206 206
0.0992786006380546 0.0046625429029787 1.0555172717419425 184 184 184
0.1062653935475795 0.0048894305823511 1.0600441785843291 227 227 227
0.0968040539705786 0.0047646000854638 1.0534029395265694 203 203 203
0.1068567747949980 0.0052749847198454 1.0607234603791014 230 230 230
0.0994886146147957 0.0192192462600643 1.0582405666979862 43 43 43
0.1030639772999915 0.0194565482351437 1.0627706271903323 204 204 204
0.0971164797887447 -0.0221522251225974 1.0573965936326035 220 220 220
0.0889864218588279 -0.0214313609936633 1.0526660082895756 221 221 221
0.0933396065384916 -0.0097916536388008 1.0521976104818103 230 230 230
0.0813497528097165 -0.0241416690097991 1.0500246106670321 241 241 241
0.1047490055592259 0.0060532720143175 1.0586433742797599 212 212 212
0.1042276790144318 -0.0217928445417846 1.0645262684679493 199 199 199
0.0815912456064644 0.0058373525851518 1.0466821863644891 161 161 161
0.1040234991384275 -0.0205516626228891 1.0641513907130937 201 201 201
0.0965106464788147 -0.0218438937864533 1.0575332358074119 244 244 244
0.0958097452228639 -0.0217651020238766 1.0568110728895592 227 227 227
0.0946558601588626 -0.0204208123032914 1.0570177612260327 205 205 205
0.0795286640365241 0.0060522183341248 1.0470229638932020 244 244 244
0.0878796248831040 0.0061294024169205 1.0498520775624498 208 208 208
0.0961400545962949 -0.0215860277483585 1.0565243838684844 155 155 155
0.1011720892982804 -0.0213782917666361 1.0605096570392913 164 164 164
0.0953217124089736 -0.0095924072159809 1.0534083953969136 201 201 201
0.0820068359119101 -0.0012179527329862 1.0476909864065027 56 56 56
0.0912946003191988 -0.0096548283109182 1.0511045653962159 222 222 222
0.0948992535011506 0.0067718007997805 1.0527255636456496 218 218 218
0.0994226902554831 0.0214423444981323 1.0577608106851648 198 198 198
0.1000060302731805 -0.0190052364177604 1.0589725650151331 181 181 181
0.0944231681830943 -0.0210211697900509 1.0567106974583020 228 228 228
0.1064864877674598 -0.0027361073235639 1.0591618814919885 165 165 165
0.0928079258445685 0.0218717813674003 1.0555595707039758 198 198 198
0.0948697082883506 -0.0207994290762918 1.0556355938943232 144 144 144
0.0818907333426958 -0.0199201942089980 1.0489491586432436 164 164 164
0.0969949028262109 -0.0188432140727456 1.0554892392200266 182 182 182
0.0881161671476438 0.0071545559344500 1.0497506238156966 223 223 223
0.1001550568809280 -0.0186241553378917 1.0585403293831706 255 255 255
0.1034793741169582 -0.0184791273152011 1.0618860404167534 83 83 83
0.0944622643194426 -0.0053842038014532 1.0534293965275934 221 221 221
0.0940682770413781 -0.0186106121061862 1.0548815690040128 221 221 221
0.0919374841091376 0.0221199550336152 1.0539244374829850 188 188 188
0.0961219565478917 -0.0204323810318444 1.0559334678348995 241 241 241
0.0993572326299496 -0.0052379521789458 1.0548312623122194 169 169 169
0.1030015238325613 -0.0199936071588029 1.0615813846827611 250 250 250
0.0846567529856701 0.0078874846264644 1.0489910343718081 214 214 214
0.1014631911097670 -0.0194346610577114 1.0601086076671031 240 240 240
0.1007529553601707 -0.0194094336268680 1.0593665840038562 95 95 95
0.0812367805188469 0.0083032025274132 1.0475719427619692 232 232 232
0.1057222983045966 0.0088434943727122 1.0595329808430889 232 232 232
0.1007546799254121 -0.0191759796943175 1.0620453810654784 224 224 224
0.0877004913817075 -0.0171860794848383 1.0514218911520818 255 255 255
0.0969586990605723 -0.0191738770655018 1.0582596970879288 233 233 233
0.0982487696845649 -0.0190781383495012 1.0570250818737590 187 187 187
0.1018437848468356 0.0212957461214108 1.0635981566930568 199 199 199
0.1008984562037461 -0.0188923525118758 1.0600672348100026 112 112 112
0.0814087680610930 -0.0088394223357844 1.0475232059307025 254 254 254
0.1080137377378886 -0.0045892132538693 1.0610589096899719 235 235 235
0.0885862801117890 -0.0163481244459939 1.0511885866301827 227 227 227
0.0889863402243596 -0.0159610987190119 1.0515086683348351 158 158 158
0.1036627281302709 -0.0080523006042907 1.0590086163282786 230 230 230
0.1071139135283816 0.0097237825723018 1.0624241999615087 198 198 198
0.0971103864417218 0.0249793709265636 1.0597834652628895 253 253 253
0.0914355441793076 -0.0158970358152890 1.0529788513652323 224 224 224
0.1010429196939423 0.0099331859541471 1.0569125688456671 131 131 131
0.1005955057046186 -0.0174961765632717 1.0586985538191114 176 176 176
0.0982526257389686 0.0256193120537706 1.0608670171171759 137 137 137
0.0974830741868321 -0.0151591895719005 1.0552170913472116 222 222 222
0.0933018988254895 0.0254596997760605 1.0566735736663784 184 184 184
0.1015905699502865 0.0220641581475616 1.0644887990528209 186 186 186
0.1043936382453240 -0.0149833298364921 1.0615552201816045 204 204 204
0.1017052993637345 -0.0170507850353846 1.0598633404169562 195 195 195
0.0793773398901890 0.0248072900227634 1.0493931337078173 211 211 211
0.1010723058692737 0.0104000964196186 1.0558751057368378 216 216 216
0.0999146688415657 0.0104518601785491 1.0540461762310465 220 220 220
0.1042098152872039 0.0106202570145312 1.0594121039435218 209 209 209
0.0809400809917424 -0.0148311721974421 1.0477566495864887 224 224 224
0.0978326470273789 0.0260613675904931 1.0610033658034157 201 201 201
0.0939301358988512 0.0260470994741160 1.0566719982134010 233 233 233
0.1052821251532081 -0.0075439512036377 1.0589288597674589 235 235 235
0.0994672589166113 -0.0165694189702393 1.0571828319070935 138 138 138
0.0818250433782039 -0.0148047154406131 1.0482940828954788 255 255 255
0.1046056725845915 0.0109557777599042 1.0589503820385981 193 193 193
0.0926537120268693 0.0259708491306066 1.0550898847282271 234 234 234
0.1021727189112954 -0.0142065029853877 1.0593843853393203 184 184 184
0.0988329673265372 -0.0163354682090163 1.0570587579531159 151 151 151
0.1049274656353534 -0.0161691996852521 1.0618891144270834 236 236 236
0.1077748120899288 -0.0158959129264911 1.0669195457010030 175 175 175
0.0948800568138477 -0.0157381325038344 1.0546861967545531 224 224 224
0.1064510109300278 -0.0153839548686428 1.0643623785772680 255 255 255
0.1012387172690549 0.0226235189208863 1.0632134281135999 8 8 8
0.1081027005555999 -0.0151541856212335 1.0654805803179810 195 195 195
0.0995811887502404 -0.0138984534386572 1.0573954120971676 243 243 243
0.0811826438256208 -0.0138207189325211 1.0480176829656735 239 239 239
0.0929802487833770 -0.0044207631065300 1.0521449204299766 167 167 167
0.1054960261860191 -0.0147862135547480 1.0625272239294352 195 195 195
0.0991931102200843 0.0116842732905520 1.0552569737029365 248 248 248
0.0982713019950619 0.0117119156514140 1.0548035641212863 217 217 217
0.0813911853323427 0.0008490066107665 1.0479982287245779 129 129 129
0.1017204271026568 -0.0147925053116537 1.0584289231552071 226 226 226
0.0886118666521601 0.0272081798180733 1.0537002543233969 218 218 218
0.0886119364363506 0.0272074094056362 1.0536792674348210 218 218 218
0.0962441604414040 -0.0145957790640862 1.0557618549780079 235 235 235
0.0925693669087888 0.0117501187240890 1.0518727807707666 209 209 209
0.0939903077856104 0.0279650567794960 1.0584769680750781 182 182 182
0.1044236063376162 -0.0071938337775376 1.0589901707542346 215 215 215
0.1017584017778140 -0.0138677707661473 1.0574938402879672 219 219 219
0.1074578567424113 -0.0137434455629727 1.0659453659345088 226 226 226
0.0875999986263661 0.0224100068306784 1.0525155736059657 239 239 239
0.1067502060626077 -0.0135687863616816 1.0636500143124976 239 239 239
0.0913318743748359 -0.0043855029176856 1.0486041444828540 159 159 159
0.0928660990394339 0.0122793712645353 1.0522864899099760 186 186 186
0.0938977248062819 0.0124281004745129 1.0526972154455656 136 136 136
0.0946704909378773 0.0290886514860641 1.0602576717375805 190 190 190
0.0971725878718612 -0.0129614118966018 1.0542299258856336 235 235 235
0.0836257499235934 0.0285367138479056 1.0523369086635903 219 219 219
0.1069939433636031 -0.0120292518950786 1.0636631691809255 225 225 225
0.0801854124291438 -0.0107930940556179 1.0472979600630985 221 221 221
0.1020391189667639 -0.0124732183313837 1.0579733225000121 221 221 221
0.0952327422427686 0.0237666519160706 1.0568269303050222 208 208 208
0.0821253381707089 -0.0095947141742503 1.0480028077735837 243 243 243
0.1040695778104754 -0.0065547181004577 1.0587439749644556 225 225 225
0.1032336951143812 0.0151545006527500 1.0614656662376736 190 190 190
0.0802798414706497 -0.0052301349101445 1.0470833805313911 240 240 240
0.1089122945608389 -0.0054850791140261 1.0617319341572873 218 218 218
0.0935425318390008 -0.0094558568340208 1.0514109763551454 19 19 19
0.0850813600202885 -0.0092674383182437 1.0500970156305092 243 243 243
0.0804617046331232 -0.0073125036030239 1.0475449664688350 243 243 243
0.0989901511053558 0.0027175704483111 1.0543637757178721 224 224 224
0.1094518104625168 -0.0019244676488615 1.0628800758359991 221 221 221
0.0808171368945285 0.0059318884848172 1.0472093768494259 228 228 228
0.0985512570143635 0.0038314090268033 1.0545663232499030 212 212 212
0.0948129589131933 -0.0031140576849040 1.0524889960774049 164 164 164
0.0925066764514554 0.0300125309344300 1.0577795038264175 216 216 216
0.1024353580701275 -0.0050619426026926 1.0572078544125418 234 234 234
0.0889161216699689 -0.0027146299341140 1.0509102444940663 173 173 173
0.1052318995197808 0.0049535700464881 1.0610232039673935 182 182 182
0.1021184151987315 0.0051763327923338 1.0579065904095171 216 216 216
0.1070033686823604 -0.0010543051756827 1.0606879175807449 191 191 191
0.0947725770626311 0.0321128504730749 1.0637691815368242 221 221 221
0.0955986579364614 0.0055059990946395 1.0533475605855644 234 234 234
0.0991267070903617 0.0058553123184839 1.0581574933609965 200 200 200
0.1067584378010056 0.0063478979653156 1.0619366237957304 218 218 218
0.0822092995823551 -0.0007287832803941 1.0467686008468038 190 190 190
0.1078701561193939 -0.0008183088019410 1.0613710497209323 202 202 202
0.0951367184895958 0.0062422777970147 1.0537547432316017 154 154 154
0.0957543544190105 -0.0005870475119928 1.0526330249873892 167 167 167
0.0945411931875247 -0.0004752657405942 1.0525827407265131 181 181 181
0.0995110316114351 0.0068219586502390 1.0551221869588265 185 185 185
0.0914355679027802 -0.0004367983998633 1.0507090009709930 238 238 238
0.0800605080170053 0.0087837107683237 1.0470674805610822 246 246 246
0.0862865187978213 0.0065486147228605 1.0496384548952951 240 240 240
0.0967423720855769 0.0002156569312528 1.0535034161171419 225 225 225
0.0818398927572032 -0.0007521057098430 1.0474487367110621 174 174 174
0.0836333694944761 -0.0001000673194346 1.0476787065916877 28 28 28
0.1044245783831177 0.0026446357739038 1.0592799808741751 240 240 240
0.0825538259149741 -0.0245770582050417 1.0515188245182940 221 221 221
0.1026853336923582 0.0007649067336859 1.0558738378633390 189 189 189
0.0876736395252331 0.0022456170520973 1.0489433259100747 176 176 176
0.1094241020029632 0.0031152411972800 1.0638729071774151 7 7 7
0.0817542533401554 0.0000365558134710 1.0470334061363982 220 220 220
0.1015301675841089 -0.0236513910996511 1.0608222528446547 221 221 221
0.1072229323415100 0.0017955777211059 1.0620195933954344 182 182 182
0.1047504457759351 0.0017459331506268 1.0593960938921465 220 220 220
0.0806511265321886 0.0105821004700974 1.0473169358810104 255 255 255
0.0905475835336118 0.0086127021639551 1.0540685628638027 164 164 164
0.0939577543574124 0.0093281291382514 1.0519734050179426 204 204 204
0.1084525214185994 0.0040758638193361 1.0615455964277083 218 218 218
0.1048849110016728 -0.0221839913709816 1.0677085492810088 169 169 169
0.0914840798176542 0.0099862720099718 1.0498125141094878 159 159 159
0.0994801371704291 -0.0221316270115097 1.0587057731440681 145 145 145
0.1033734698671927 0.0110506572327920 1.0582485739382093 212 212 212
0.1034132116469606 -0.0212984208075475 1.0649141080653683 223 223 223
0.0901307428315643 0.0048656839441865 1.0503705327988577 255 255 255
0.0880578274872971 0.0120737129968016 1.0502311445736789 225 225 225
0.0801983233277482 0.0118184595960051 1.0466122119511569 210 210 210
0.0873589755173085 0.0054865491982201 1.0498319263393785 204 204 204
0.0860879875733924 -0.0188955992966296 1.0510312541654074 236 236 236
0.0962672549297469 -0.0186736929035468 1.0558029751728339 255 255 255
0.0992617849569146 -0.0183787135646387 1.0586739961646805 237 237 237
0.0824500389759632 -0.0186447011208309 1.0501318909016339 231 231 231
0.0816887155819893 -0.0195263677389417 1.0488735868650623 255 255 255
0.0959809183820877 0.0144168616558456 1.0543547232373474 239 239 239
0.0932995599114098 0.0147000806083554 1.0532345675282837 214 214 214
0.1034567875782882 0.0153100416009464 1.0598155825446320 160 160 160
0.0831371489333716 0.0101509412912350 1.0489744611431204 182 182 182
0.0997662486724716 -0.0174967355994263 1.0581701164578641 223 223 223
0.0817668087462382 0.0137180769168451 1.0486102838493974 177 177 177
0.0820288991499316 -0.0035150977694219 1.0479636173433351 240 240 240
0.1052814566641086 0.0156378076685699 1.0643491785452435 235 235 235
0.0865845542189190 0.0143469033214496 1.0497081183245831 181 181 181
0.0853447125003735 -0.0172193442329007 1.0534355224946612 173 173 173
0.0908678318600303 0.0150280178076624 1.0518339184696091 177 177 177
0.0949004519459452 0.0092101125130843 1.0528292803400225 189 189 189
0.0860310570296906 -0.0188771138544483 1.0503745369662671 236 236 236
0.1039418277712795 0.0160347502773135 1.0613977304198827 168 168 168
0.0862606316896436 0.0135826832424128 1.0502748128944788 181 181 181
0.0866331949991845 0.0154385308391040 1.0505495364471664 226 226 226
0.0821190722141300 0.0200306648052295 1.0495245747033799 226 226 226
0.1040990891549597 -0.0136358037038033 1.0603139122740370 206 206 206
0.0834167897923694 0.0203799307598929 1.0492773242315341 200 200 200
0.0969965805302941 0.0181116069465210 1.0559505945535839 156 156 156
0.0840865347951414 -0.0079824580163592 1.0487299556442591 146 146 146
0.1053097107632785 -0.0101560231501352 1.0590592031687946 10 10 10
0.0893799209333904 0.0234336476296806 1.0536630378878604 148 148 148
0.1023771964206252 -0.0101270116167998 1.0578375608319905 229 229 229
0.0905867814310211 0.0337764748861007 1.0612066910247799 199 199 199
0.0925480556177039 0.0221814638739790 1.0560810713882500 175 175 175
0.0933453564391360 0.0268008753143805 1.0563571580514961 247 247 247
0.0813724091398821 0.0081269123042062 1.0479683655771517 186 186 186
0.0862256393674705 0.0266693589439952 1.0526528324619011 168 168 168
0.0814778151253769 0.0000649546148022 1.0474275295763371 224 224 224
0.0816236724040918 -0.0065526088650209 1.0477482453049725 247 247 247
0.0967339735255137 0.0290052092849053 1.0617675341140449 77 77 77
0.0909899863262535 -0.0199797749414140 1.0530187698063731 191 191 191
0.0797224510581145 0.0213722654306926 1.0489245180707998 249 249 249
0.0918101882329355 0.0300551451204119 1.0576607487394956 103 103 103
0.0895918576197469 -0.0196149617709795 1.0522765320732481 235 235 235
0.0954758761920356 -0.0231085557477186 1.0613874331553228 182 182 182
0.0847845183019607 0.0271683898640247 1.0515931967275458 173 173 173
0.0893667698077129 0.0038438678998208 1.0500821036951036 206 206 206
0.0828408416268249 0.0015406204975449 1.0471446028504181 197 197 197
0.0991864031889163 -0.0227523089920156 1.0598881473004809 242 242 242
0.0803586665991085 0.0244924617613389 1.0495382794941395 170 170 170
0.1058156848448682 -0.0217169089930237 1.0664636348692265 6 6 6
0.0852839844022700 -0.0134846989886073 1.0491150266207707 240 240 240
0.0936452226609293 0.0039498919219984 1.0518994356758884 236 236 236
0.0982880081928036 0.0276840385265631 1.0639086570057747 168 168 168
0.0820327457096046 -0.0156729607042674 1.0485189323064537 188 188 188
0.1062547887458370 -0.0196860645869924 1.0674288107270848 5 5 5
0.0823527604351856 -0.0149948090187414 1.0484939505939901 246 246 246
0.0988880852758105 -0.0206876200323697 1.0591531250318560 236 236 236
0.0880892052642103 0.0272754028300576 1.0545081944289689 172 172 172
0.0988888761093535 -0.0206877707041027 1.0591719383299760 236 236 236
0.0910459490603034 0.0295920450447929 1.0564337683217979 255 255 255
0.1062044463770556 0.0025926658207720 1.0636178748278475 208 208 208
0.0897290326842084 0.0153451610461442 1.0518368376462499 200 200 200
0.1013800862100065 -0.0203565851390430 1.0609253415262596 188 188 188
0.0910450284728680 0.0295908046051558 1.0564184951858777 255 255 255
0.0986244744862324 0.0070085048429701 1.0547378070824920 247 247 247
0.0926186171192543 0.0231098139851029 1.0535606513857814 180 180 180
0.0931902798617090 0.0072412031296301 1.0511520403582373 217 217 217
0.0810990464515758 0.0306409075118896 1.0515154244770779 206 206 206
0.1018801905529098 -0.0161250370731638 1.0587724683175803 158 158 158
0.0899945000707876 -0.0097501311112410 1.0508945609799571 239 239 239
0.0976852138779267 -0.0157596796554664 1.0562331423977764 179 179 179
0.0831007216146473 0.0289564553056221 1.0545989432219729 180 180 180
0.0993437696880816 -0.0161206350443646 1.0560423096050020 225 225 225
0.0809983271641009 0.0230948044687431 1.0488248844356858 157 157 157
0.0812469448253567 -0.0013116811892559 1.0476328145102431 207 207 207
0.0848523824309764 -0.0133447434498662 1.0505667116500392 232 232 232
0.0821983656132381 -0.0087779039356429 1.0477942159710469 244 244 244
0.0945163268975553 0.0250721551569486 1.0566667981166393 199 199 199
0.0933435654583321 0.0133080957541627 1.0520179574578239 164 164 164
0.1059264666262523 -0.0143671597641890 1.0644031660571693 190 190 190
0.0818469202295193 0.0298793800848373 1.0516407198499069 148 148 148
0.0873875246209341 -0.0097012562098443 1.0485632733269450 172 172 172
0.0830503762698318 -0.0063065192650665 1.0484942907880237 153 153 153
0.1028983330279085 -0.0083864582657285 1.0586134458135099 207 207 207
0.0999627747504543 -0.0011457135903888 1.0540805252043766 190 190 190
0.1043028824804526 -0.0062918025249158 1.0583257683789924 122 122 122
0.0815345344748838 0.0178490421760313 1.0480983673788613 186 186 186
0.0997936902107149 0.0023582130561519 1.0554002898916615 224 224 224
0.0926165653911418 0.0151266238410987 1.0537016869164759 189 189 189
0.0829092506275586 -0.0037973558422773 1.0479484445956513 183 183 183
0.0815886199510947 -0.0048141763040614 1.0479820490401170 241 241 241
0.1066484135043744 0.0087772330740710 1.0605583107370573 231 231 231
0.0966681541619851 0.0152832410705048 1.0541990282573679 215 215 215
0.0857545309367612 0.0248701512357391 1.0521023643916227 177 177 177
0.0962345749203465 -0.0053341826531048 1.0545956243756838 178 178 178
0.0824213663182323 0.0147340665254955 1.0479319391855229 179 179 179
0.0905672642188596 0.0255334607871229 1.0544622020467509 155 155 155
0.1053418617712018 -0.0189527690192214 1.0649815464263639 207 207 207
0.1022953357944333 -0.0000418980531781 1.0571619251788003 216 216 216
0.1068806548412684 -0.0181500555443584 1.0658924984787403 4 4 4
0.0846114597488700 0.0263634904374291 1.0523527842348994 187 187 187
0.1044209736922764 -0.0180548507949862 1.0650948779641092 174 174 174
0.0818007403296184 -0.0054511314262497 1.0475625147544925 220 220 220
0.1065014743039967 0.0009517298976415 1.0601986843086060 204 204 204
0.1060897341306461 0.0141427747323744 1.0639976939365958 6 6 6
0.1013701955792245 -0.0059295110575185 1.0564680081132254 239 239 239
0.0814389407294171 0.0284608743497586 1.0513574090101427 183 183 183
0.0802350538813983 -0.0027114867162549 1.0474868014390490 124 124 124
0.0965903860861166 0.0028403907576041 1.0539882071810325 217 217 217
0.0995031520634978 0.0145136744750394 1.0570019698117106 139 139 139
0.0796316757526707 0.0154826651376617 1.0477863179555609 181 181 181
0.1070491735234476 0.0104023965034834 1.0642132715521218 230 230 230
0.1022079253137130 -0.0056330782794604 1.0583769334008082 209 209 209
0.0912346590087016 0.0110221173100115 1.0585963182976734 162 162 162
0.0827981251737482 0.0134851030046442 1.0489472682161736 187 187 187
0.0792625484817878 0.0168125137352453 1.0470829202535770 181 181 181
0.0945818280988097 -0.0154137783182808 1.0552620025883759 188 188 188
0.1061667943095301 0.0118552863750592 1.0624643149951318 188 188 188
0.0841127306178366 0.0145091258008303 1.0495829003935599 197 197 197
0.1046011826590159 0.0163176948825528 1.0640296505209639 216 216 216
0.0835287023126605 -0.0072091402668658 1.0484317248319390 166 166 166
0.1089865262788613 -0.0104024640229099 1.0647406439083049 192 192 192
0.0820632193582312 0.0190599358143270 1.0495327866431026 229 229 229
0.1088808754876456 -0.0145995408326417 1.0682127844129921 6 6 6
0.0827987448026137 -0.0037783652279004 1.0466301251424206 183 183 183
0.0858163191169205 0.0202699384544274 1.0508495697507183 223 223 223
0.1026679275752272 0.0178589666828847 1.0616983470649355 179 179 179
0.0806733444116761 0.0012922890786245 1.0470282288700608 201 201 201
0.1008626555347096 -0.0050400349873483 1.0563422719449731 247 247 247
0.0816073561480522 0.0029840537722547 1.0473581110355972 253 253 253
0.0873773205152142 0.0191771448740087 1.0523971401367485 180 180 180
0.1045114964398618 -0.0018770165443866 1.0577800975803915 216 216 216
0.0883782237413005 0.0175468615766768 1.0509838981709820 190 190 190
0.1090920762693944 -0.0133021906542825 1.0663689821104265 7 7 7
0.1061466588516365 -0.0025318802860439 1.0597140434380043 244 244 244
0.0835345404509503 0.0330968352675825 1.0531422005143853 220 220 220
0.0909234060824948 0.0264124066377234 1.0549429552136547 200 200 200
0.0933508315578492 0.0133097652592806 1.0521020265071150 164 164 164
0.0891783143967475 0.0170108958698001 1.0516163842916708 195 195 195
0.0888812020970205 -0.0133761442949228 1.0510229005552776 210 210 210
0.0797217848206358 0.0163716016665045 1.0475908969645340 180 180 180
0.1059962643311393 -0.0130918281336060 1.0631467060183242 228 228 228
0.0802079591266018 -0.0045038353036981 1.0472949427047116 241 241 241
0.1102910335120137 -0.0081932379280899 1.0663515161978014 8 8 8
0.0937697249650605 -0.0067917080526209 1.0541403543454639 216 216 216
0.0978313583728501 0.0285802152860142 1.0627749356006782 6 6 6
0.1012326280328078 -0.0241306161208525 1.0632943801474999 220 220 220
0.0943083257907176 0.0327409714704264 1.0652283750796843 214 214 214
0.0959505050950608 0.0136002569545779 1.0539361714254289 161 161 161
0.0826145986074497 0.0168674805271995 1.0491378410074639 184 184 184
0.1008381737432851 -0.0119660057180759 1.0572587540974399 202 202 202
0.0812512762754807 0.0191797391607746 1.0489718678347908 215 215 215
0.1015132484829184 0.0134425638492560 1.0572612832305686 227 227 227
0.1015917933962333 -0.0083131077845905 1.0570549108035863 233 233 233
0.1035781245913244 0.0180912439308775 1.0570291988570768 8 8 8
0.0949719269286893 0.0301376018264979 1.0603204993420594 170 170 170
0.0805813684847359 0.0298480901020299 1.0516917922279059 185 185 185
0.0900382268677924 0.0293912210014391 1.0563014518700635 157 157 157
0.0839448693249108 0.0206197086560534 1.0503705596749511 190 190 190
0.0896210889616689 -0.0118296462971644 1.0484867688878485 255 255 255
0.1011284579018939 0.0023435081024581 1.0560025027621567 231 231 231
0.1099521047267805 -0.0072872681568767 1.0668199201642443 200 200 200
0.0823760032705965 -0.0125155248147999 1.0488082367118727 241 241 241
0.0903820673130236 -0.0001056723747915 1.0509706611327001 222 222 222
0.0841873976258598 0.0006645777936942 1.0484288534251505 243 243 243
0.0809823165049861 0.0246936752292090 1.0501708396003318 205 205 205
0.0945636166881265 0.0192578512045104 1.0571049633638900 207 207 207
0.1050258704314035 0.0035257066743143 1.0585440721564001 220 220 220
0.1032660010295277 0.0169810068662071 1.0630666653642586 255 255 255
0.0939717489470065 0.0301508223136318 1.0614873331353012 151 151 151
0.1056171464908795 -0.0117822499843264 1.0606326786862224 250 250 250
0.0843653636830218 -0.0114488290760529 1.0484309131521623 238 238 238
0.1023927150691301 -0.0123667840714819 1.0571949700466130 12 12 12
0.1045963082998822 0.0023292303072405 1.0588748428014587 231 231 231
0.1004165488647349 -0.0239238514691083 1.0611946896066886 223 223 223
0.1019268612303813 -0.0232172921041109 1.0620593967530076 121 121 121
0.0878292228515983 -0.0162824301890598 1.0508840314795931 241 241 241
0.0940761808849541 -0.0149727592230850 1.0588159580842267 166 166 166
0.0950653663188953 0.0206642380555285 1.0519701474804930 178 178 178
0.0813850801638371 -0.0022186518958785 1.0467603107111996 209 209 209
0.1011870392071338 -0.0231895588810041 1.0617958086988668 228 228 228
0.1012440094993002 0.0203870292845984 1.0620312472319451 204 204 204
0.1029374212813172 0.0142596891053808 1.0599027364361253 176 176 176
0.0841573708366227 0.0190716774725496 1.0493849127960406 197 197 197
0.1029820829610894 -0.0103434350615975 1.0577358465823747 233 233 233
0.0966939513641870 0.0168650318817089 1.0547543566867761 233 233 233
0.0859451793472704 0.0073817248576225 1.0504237100353897 215 215 215
0.0961135877550042 0.0223016213250565 1.0578156132868124 212 212 212
0.0821783765856400 0.0287481029661315 1.0520317815008013 185 185 185
0.1022231260524464 -0.0072244973386306 1.0576581077784248 221 221 221
0.0808769899265908 0.0033666011617265 1.0469717823415381 234 234 234
0.1067758302926543 -0.0032653659644768 1.0602145480301408 184 184 184
0.0975091588713370 0.0203776032537187 1.0560351209481222 179 179 179
0.1072107160406553 -0.0151399311279026 1.0673497060607549 188 188 188
0.0807233089335330 -0.0082546120821312 1.0480732353971636 159 159 159
0.1018214407055125 -0.0247421669431798 1.0636880372972790 198 198 198
0.1111140917721888 -0.0030188797183482 1.0658634968106746 5 5 5
0.0866831533012554 0.0196245047970874 1.0511432350612981 170 170 170
0.0903840099203120 -0.0145557257032445 1.0522153871486266 184 184 184
0.1019061627274468 0.0017079952767436 1.0554970069771825 236 236 236
0.0889408484895600 0.0016652857534682 1.0505881502064980 152 152 152
0.1001581137360508 0.0235646242170212 1.0632867307653457 189 189 189
0.1018048456612845 0.0150946622844070 1.0585275470500137 249 249 249
0.0875041853143473 -0.0041233557839141 1.0508259123289057 183 183 183
0.0846754547947969 0.0308428404029989 1.0544297792977988 196 196 196
0.0959508030788464 -0.0071812612009989 1.0530938761569140 232 232 232
0.0981567805674673 0.0039185329695909 1.0550252547217986 182 182 182
0.1039467651874738 -0.0228031384496891 1.0669232818940815 215 215 215
0.0951376922838141 0.0158320585858139 1.0485754838687502 186 186 186
0.0845738401478216 0.0178972825348025 1.0503529116889245 195 195 195
0.0983246611065516 -0.0150291294798924 1.0569448269021444 242 242 242
0.1020865466051165 -0.0089873248712358 1.0577292852819276 231 231 231
0.1102011050513943 -0.0095218102410802 1.0665904730076685 7 7 7
0.0990611527476834 0.0147596331533039 1.0558622690358419 126 126 126
0.0842042122352442 0.0047064464976427 1.0486338324657465 173 173 173
0.1023958111739745 -0.0037727185020130 1.0555634386486215 171 171 171
0.0974938357988788 -0.0237758910109828 1.0595229312712990 236 236 236
0.1033424853408972 0.0081619767192617 1.0552929071891946 123 123 123
0.1063684137352528 -0.0119163070180307 1.0619989496351123 172 172 172
0.0879617543596889 -0.0211624655138273 1.0514897096680682 187 187 187
0.0933104846858766 0.0295015081492518 1.0591638884265469 184 184 184
0.0880615841688241 0.0232256315542676 1.0525814579718682 169 169 169
0.1008114442493341 0.0158581847573551 1.0575711085925339 225 225 225
0.1103798558124676 -0.0020901041006195 1.0628820812472137 167 167 167
0.0885541782950323 0.0162665945889781 1.0513927165762369 191 191 191
0.1068879891370127 -0.0149805609247188 1.0635131978141619 186 186 186
0.0879123925278740 0.0165241865027565 1.0510785575346722 220 220 220
0.0971239872473581 -0.0138419557219299 1.0545373097652333 181 181 181
0.0999154140939169 -0.0050837471308830 1.0553641181733486 241 241 241
0.1009778972534962 -0.0247801807238567 1.0631912978527529 239 239 239
0.0949510403703558 0.0233422355607238 1.0554584398518398 200 200 200
0.1074198601151091 -0.0115210822642779 1.0635178231699236 237 237 237
0.0832875324635424 -0.0174011086416735 1.0493240317701122 211 211 211
0.1058473330191729 -0.0082050267292432 1.0604246947665783 153 153 153
0.0864370476988970 0.0326138603999635 1.0564129017391777 225 225 225
0.0885254757425846 0.0215651932270549 1.0507487326761373 223 223 223
0.0811178956625569 -0.0027942383963112 1.0476095781023758 238 238 238
0.1018423820863492 -0.0030321904191518 1.0555272952305548 167 167 167
0.0907210864877005 0.0043677940227940 1.0515164111480499 179 179 179
0.0949034305077812 0.0279107423867578 1.0591653068633740 178 178 178
-0.0100933483768932 -0.0249245527130788 -0.0504770545846691 0 255 0
-0.0077928827261549 -0.0163819760497041 -0.0508646202292657 0 255 0
-0.0079315667460724 -0.0102449973067024 -0.0484919871254212 0 255 0
-0.0082218965269211 -0.0002270795276339 -0.0486734409463764 0 255 0
-0.0081726629181470 0.0067347598322564 -0.0502649316719627 0 255 0
-0.0078748995108891 0.0124217184659163 -0.0497733225400554 0 255 0
-0.0075395357065492 0.0191645711746005 -0.0467624132713968 0 255 0
